# .PCD v.7 - Point Cloud Data file format
VERSION .7
FIELDS x y z rgb
SIZE 4 4 4 4
TYPE F F F F
COUNT 1 1 1 1
WIDTH 1051
HEIGHT 1
VIEWPOINT 0 0 0 1 0 0 0
POINTS 1051
DATA ascii
5.2962637 10.963634 -39.374481 9.768027e-39
6.3452387 10.115047 -39.523453 7.9241144e-39
38.248493 11.908442 -110.68349 1.761116e-38
-18.26836 -19.756329 -76.764511 2.1204939e-39
-8.1841698 -15.115039 -181.3101 1.2431275e-38
-2.20066 -9.1453571 -103.465 1.2798971e-38
9.744585 2.5821626 -41.274746 8.4758547e-39
-68.655312 -50.024132 -325.42841 1.5022854e-38
10.242506 2.2050509 -41.162296 1.133248e-38
-0.25161701 -9.1702766 -103.74693 1.4088274e-38
26.249035 10.194473 -204.70496 7.2773101e-39
-17.354765 20.041273 -71.975655 1.7612965e-38
-16.961016 20.00346 -71.839851 1.7704801e-38
6.4842186 -5.4875722 -43.642838 1.2153966e-38
-1.107249 1.074995 -88.753197 1.3259962e-38
-0.76738399 1.06753 -88.136856 1.3167766e-38
-3.3686831 -25.586506 -107.55727 1.5658852e-39
-2.4710987 -25.178379 -107.31447 1.6577221e-39
-1.5556111 -25.543348 -107.37505 1.4736909e-39
-5.369194 -8.5500107 -61.115768 2.9484623e-39
-66.625725 -47.189808 -312.09116 1.5575669e-38
12.526688 3.6286259 -117.21449 1.4641452e-38
-10.22509 -16.376377 -63.786705 2.211972e-39
13.002019 3.785511 -117.51581 1.3075205e-38
10.96025 1.189267 -88.960564 1.2429474e-38
-9.606287 -16.466497 -63.332539 2.2112518e-39
11.205782 1.146832 -88.547119 1.1508955e-38
-50.328983 -35.987873 -250.49423 1.5851541e-38
-11.631921 19.474653 -165.54401 4.6998037e-39
-8.67523 -1.1168425 -106.35593 1.7604695e-38
5.7485485 10.400035 -44.117447 7.7382882e-39
-13.220582 -36.190952 -292.88556 7.0932887e-39
6.0866899 10.04451 -44.017483 7.9219564e-39
8.4189644 10.056135 -44.068432 7.368784e-39
1.057923 2.3208959 -46.603577 6.6308771e-39
-1.199934 -1.2574716 -106.95259 1.5009159e-38
39.629524 11.495414 -115.37987 1.7519329e-38
-0.66248101 -1.2574716 -106.95259 1.4825847e-38
40.016106 11.254053 -115.37916 1.751933e-38
14.020617 -143.85742 -793.23175 1.1047967e-38
12.431537 8.6672688 -133.59692 1.6206619e-38
-13.195259 26.332432 -210.35979 5.3437312e-39
-12.666715 26.332432 -210.35979 5.5277609e-39
-8.398078 -15.131225 -139.46931 4.1469999e-39
9.2465429 2.4393113 -46.629707 7.4617055e-39
-0.51495838 -17.24906 -157.77046 1.1601507e-38
73.55233 -80.766869 -352.54742 5.1564518e-39
-4.0702853 -6.4017115 -95.487213 1.4272669e-38
-3.7480202 -6.596838 -95.426781 1.4364147e-38
-183.71861 -567.96069 -2928.8557 1.9361054e-39
-2.7529197 -6.1653032 -95.547455 1.5283947e-38
12.20978 5.2676191 -151.69371 2.0907159e-38
-59.676731 -41.848297 -286.27911 1.5942657e-38
16.271008 -121.90095 -645.34106 1.2245432e-38
11.05566 1.4856825 -93.550667 1.3903885e-38
-2.4394374 -10.26476 -37.772945 9.2230943e-40
-256.8963 -395.69727 -2379.6951 3.3161644e-39
-1.8503622 -10.560637 -37.772945 1.1059846e-39
-0.38555303 10.275177 -49.602077 8.0148737e-39
0.0043270001 10.939455 -49.576984 8.5680433e-39
4.9384789 -10.314472 -37.772938 4.51216e-39
5.4041591 -10.521377 -37.772945 4.1433789e-39
-10.680717 -30.893875 -266.25961 8.8392422e-39
-8.2383432 -1.5091684 -111.65725 1.2712917e-38
6.6838107 -10.480962 -37.772945 4.3277716e-39
-15.234674 15.086507 -65.931091 1.7889552e-38
-7.6241798 -1.5372323 -111.93874 1.2342324e-38
7.2738194 -10.475505 -37.772942 4.6043543e-39
5.703424 10.545414 -49.365677 1.050019e-38
71.779625 -77.882332 -339.95645 5.1564518e-39
6.1963978 10.380373 -49.288204 9.7647802e-39
10.796321 8.6345634 -138.45499 1.9339474e-38
-1.942691 -1.444587 -111.00619 1.5098838e-38
76.477539 -77.882332 -339.95645 5.6177859e-39
11.506481 8.6446447 -138.62343 1.8879577e-38
77.758789 -77.882332 -339.95645 5.8943714e-39
12.535713 8.286685 -138.45499 1.7223645e-38
-10.029034 -11.99663 -84.989113 4.8849292e-39
-9.9094334 -11.386908 -84.423981 5.2526342e-39
-9.6042948 -13.219076 -55.423595 2.0275836e-39
447.70175 -45.029503 -1359.8258 1.6687772e-38
15.71496 -122.0695 -692.27496 1.187665e-38
-232.97964 -395.69727 -2379.6951 2.9488168e-39
-7.344768 -17.244265 -162.7142 1.0128902e-38
7.0831819 -111.39445 -559.92828 1.0590586e-38
-0.5479095 5.1086292 -38.13258 1.7871897e-38
-33.627617 -28.003939 -182.17763 3.4112369e-39
8.8634243 -11.280467 -84.423775 8.4711743e-39
-267.64496 -441.21042 -2538.3416 2.9484553e-39
-32.941017 -28.003939 -182.17763 3.4112355e-39
9.2671394 -11.414394 -84.237206 9.7611915e-39
-5.5372534 -2.6590652 -40.660942 1.7512866e-38
3.7693002 5.564909 -38.705746 1.5288259e-38
-4.8550391 -2.4477143 -40.853134 1.76047e-38
4.3160119 5.5752878 -38.536064 1.5104586e-38
-222.94514 -559.48523 -3172.927 2.4885575e-39
11.260819 7.984261 -67.870094 4.7898343e-39
1.7154068 20.189953 -81.58963 1.0965849e-38
-214.97293 -559.48523 -3172.927 2.7644242e-39
11.147181 1.8125114 -98.514091 1.5102067e-38
9.3328924 -0.074914753 -69.385231 1.3167401e-38
4.4593959 -10.73581 -42.6138 3.4065383e-39
-30.173359 -25.162178 -169.22276 4.2399214e-39
-1.2074895 -3.132777 -87.933311 1.7402647e-38
-66.861832 -44.47282 -309.55383 1.5944096e-38
11.697156 0.48221302 -145.32489 1.9246568e-38
12.427435 0.664783 -145.32489 1.9246565e-38
-67.21788 12.143621 -376.98141 1.880432e-38
1.138522 -15.261404 -149.31421 1.0219294e-38
38.70155 14.972389 -112.81543 1.7887389e-38
-27.413376 -22.510933 -156.68774 8.0177856e-39
39.163326 14.855862 -112.6483 1.7887746e-38
6.4466991 5.55474 -43.218075 1.0776424e-38
10.783496 1.5172739 -103.74693 1.795618e-38
-14.307347 2.5329754 -61.250423 1.8161468e-38
-0.76117402 -14.012786 -154.1503 1.3628014e-38
-368.15027 66.10862 -1903.7561 1.8620653e-38
0.40132999 -14.82749 -154.56805 1.2430902e-38
1.175397 -14.4001 -154.1503 1.1786256e-38
-15.199786 -5.0968399 -63.038284 1.7051884e-38
-5.8486438 2.283154 -61.312595 1.8159676e-38
-38.765797 -31.119766 -205.81148 4.8849307e-39
-244.93797 -533.21802 -2379.6951 1.5673257e-39
-4.2616034 -1.7328601 -121.45206 1.5282874e-38
-3.9501359 -1.578004 -121.25835 1.5650937e-38
-5.5269318 19.240948 -133.59692 1.6951379e-38
-4.1842432 19.408783 -133.59692 1.7226885e-38
2.8306489 2.6176331 -61.33009 8.8421246e-39
3.5603588 2.5042112 -61.334606 1.4273749e-38
-3.335062 -30.483727 -111.77685 1.106342e-39
12.006231 6.5439034 -119.35775 1.3718419e-38
-2.6573143 -30.65242 -111.73983 1.1059818e-39
13.565686 6.3639655 -119.35775 6.9063766e-39
-3.9559669 15.155823 -75.098862 7.0032497e-39
14.105498 6.8437991 -119.35775 5.2515384e-39
-273.09579 -506.89209 -2719.6516 2.3970836e-39
-0.82704502 -30.172461 -111.00619 1.4751273e-39
12.400695 -3.1686671 -92.191582 8.6526971e-39
5.7670646 13.32272 -46.18008 9.2144861e-39
13.27523 -3.7654555 -92.640747 9.2969833e-39
-116.31921 103.23935 -1655.4401 5.4345003e-39
-23.724335 -20.204851 -143.13956 5.3437494e-39
-112.15979 103.23935 -1655.4401 5.5266959e-39
-17.751379 6.3322649 -124.0232 1.8988711e-38
-11.639494 -10.146063 -52.662788 3.5019934e-39
123.85271 -111.39445 -559.92828 4.5128817e-39
-10.172976 -10.702701 -52.606152 2.4885631e-39
-9.5656643 -10.505406 -52.538357 2.7655074e-39
-108.00037 103.23935 -1655.4401 5.8951183e-39
-8.8838568 -10.356388 -52.278465 2.8573457e-39
-114.07552 -216.57492 -1228.2297 2.3967234e-39
12.836912 3.5773158 -137.95334 1.9615344e-38
13.159734 3.5705462 -137.70433 1.8878136e-38
-103.84095 103.23935 -1655.4401 6.5401234e-39
-101.43806 -395.69727 -2379.6951 2.4878359e-39
14.318576 1.7227144 -108.47614 1.1048692e-38
-95.4589 -395.69727 -2379.6951 2.4874771e-39
92.711647 -78.904396 -396.61588 5.9862055e-39
-6.9226532 2.6860282 -66.17942 1.8621006e-38
-40.679588 -31.27895 -210.35979 1.1796369e-38
-15.257005 -11.413142 -264.41058 1.4827648e-38
-14.592653 -11.413142 -264.41058 1.4734729e-38
-6.1510797 0.30420089 -37.772945 1.8619931e-38
-5.8387785 0.35205996 -37.772945 1.8527733e-38
-5.2060938 19.070921 -138.45499 1.7596028e-38
-2.4761574 0.18465407 -37.772942 1.5012766e-38
-4.8582149 19.070921 -138.45499 1.7597107e-38
-210.93153 41.701145 -1119.8566 1.8712846e-38
16.461882 12.76823 -93.550667 1.3450452e-38
-5.2511182 -7.3738718 -39.39856 2.3041691e-39
-1.033834 -5.5769782 -68.976669 1.2983362e-38
-0.81235224 -5.5848436 -68.5448 1.372021e-38
5.9318433 0.34995097 -37.772942 1.3352151e-38
6.5087638 0.50065255 -37.772945 1.3445422e-38
7.2555251 0.51805705 -37.772945 1.2893328e-38
11.782873 -3.4781859 -97.628517 5.2461448e-39
-15.392904 18.311581 -67.90802 1.7889191e-38
12.150822 -3.4781859 -97.628517 5.8900722e-39
-127.4447 -262.06073 -1269.1708 1.9357425e-39
11.856015 -7.9859357 -39.640953 1.4754846e-39
12.06144 -7.9900932 -39.661587 1.475479e-39
2.958652 5.1457229 -53.44006 5.7103487e-39
3.1187057 5.1668282 -53.309166 6.1706094e-39
15.999824 -115.08593 -634.58539 1.2152876e-38
9.4895821 -98.240601 -470.06323 1.0314361e-38
-8.1010809 2.4899671 -71.704559 1.8528453e-38
-7.9284468 2.4928434 -71.77272 1.8620647e-38
37.3965 17.544548 -109.41127 1.8164344e-38
4.304275 8.1232958 -40.229454 1.1974243e-38
-1.5222609 2.125638 -71.569778 1.1973899e-38
5.172749 8.1324577 -40.606503 1.2156832e-38
122.05775 -108.39356 -551.81335 4.2362948e-39
-0.50404799 -3.3802309 -102.07808 1.712606e-38
0.0089100003 -3.3802309 -102.07808 1.6664362e-38
-17.069651 -21.768398 -77.231483 1.6588025e-39
-2.1368301 13.253484 -56.828541 9.0297431e-39
10.89766 -1.7085969 -131.29353 1.2704264e-38
11.557429 -1.7085969 -131.29353 1.1966699e-38
11.862652 -3.5244184 -102.55976 4.6018515e-39
15.900763 -1.714509 -131.74783 1.2980851e-38
-13.577299 -2.4146388 -60.64864 1.7789449e-38
16.562817 -1.273141 -131.74783 1.5468696e-38
17.195171 -1.2161555 -131.52069 1.6574324e-38
6.9806509 13.569866 -56.659534 8.1074225e-39
-364.9704 -836.46857 -3461.3748 1.3825715e-39
7.106113 13.466426 -56.525112 7.7386441e-39
4.5651965 7.3231273 -87.208359 5.8043562e-39
11.127383 9.0168343 -116.43768 9.7637236e-39
-3.3489482 -27.369329 -108.37341 1.3825715e-39
-2.6217129 -27.633142 -108.33936 1.1985376e-39
-1.589774 -27.606009 -108.32227 1.290729e-39
-14.570945 -18.654295 -64.462547 1.2900214e-39
-13.986403 -18.088697 -64.753609 1.5666068e-39
-5.6226611 -14.341182 -169.97823 1.3165967e-38
-10.116052 -18.150433 -64.974609 1.9353894e-39
-9.9527979 -18.150433 -64.974609 1.8431937e-39
-8.4140987 -18.863773 -64.437592 1.8403113e-40
-43.666698 -31.619404 -220.08742 1.566715e-38
-5.521102 -20.230656 -200.39539 1.2706059e-38
-9.0221033 2.654964 -76.45607 1.8528453e-38
-2.5131526 8.8118753 -45.533943 7.2794765e-39
-8.8211536 2.6524963 -76.379456 1.862029e-38
18.189989 1.138649 -118.61409 1.3260312e-38
38.219166 17.760269 -114.33971 1.8163619e-38
-8.5820656 19.738945 -148.73094 7.5557046e-39
-5.254221 17.093826 -119.73309 1.6767347e-38
-36.194008 8.5508785 -215.11369 1.8805043e-38
-169.43974 -296.47681 -1730.6874 2.9488182e-39
-15.171259 5.8514013 -63.248413 1.8438774e-38
-11.439523 -15.06741 -51.176239 0
-10.999104 -15.169355 -51.522495 0
-3.6215878 13.35209 -61.612072 1.0414841e-38
-9.3676662 22.575775 -182.17763 1.5571685e-38
11.300574 -3.429642 -107.63344 5.0628269e-39
-1.3812904 -19.204823 -158.64635 1.261494e-38
7.806139 53.851749 -221.36699 9.3978011e-39
-159.22279 183.81143 -2538.3416 6.3564524e-39
0.59873998 -0.042371001 -94.01265 1.5467617e-38
-152.84502 183.81143 -2538.3416 8.4755113e-39
-9.2675867 -14.455377 -127.34155 3.6853043e-39
-8.9476309 -14.775331 -127.34155 4.0544469e-39
-123.60836 -434.32288 -2239.7131 2.0279409e-39
-9.8048592 2.7229471 -81.357101 1.862029e-38
-6.3404803 2.7480633 -81.496773 1.01354e-38
-5.831017 2.8312175 -81.531685 1.2993819e-38
-16.115892 13.488419 -66.837662 1.8164698e-38
-4.7025356 0.28964445 -52.401154 1.7975286e-38
-15.631079 13.491462 -66.440117 1.8256534e-38
9.5026112 -10.397456 -67.322411 1.1139803e-38
100.15486 -84.742119 -442.73398 4.4210462e-39
-2.5093825 -5.072814 -83.49968 1.5651292e-38
-4.7373729 -7.3257704 -54.317329 3.1328521e-39
-7.550808 -13.211791 -85.948357 2.6733089e-39
10.996252 -1.126518 -141.01897 1.5465819e-38
-12.34309 20.257654 -158.64635 6.6351847e-39
6.9582648 -7.3874044 -54.264519 1.2246876e-38
-10.549341 20.456959 -158.64635 5.3440927e-39
7.2808084 -7.5322242 -54.423679 1.1509671e-38
-9.9514246 20.257654 -158.64635 5.4359268e-39
3.7472284 11.358765 -37.772945 3.2253967e-39
-25.63265 4.4049888 -162.0218 1.8896514e-38
4.3268538 11.47731 -37.772942 0
-100.28378 -369.17444 -1903.7561 1.9357453e-39
130.09872 -122.84097 -594.92377 4.7883896e-39
7.6165171 11.491525 -37.772945 0
-1.2513216 3.5958419 -39.952908 7.64718e-39
8.48596 11.425724 -37.772945 1.2903745e-39
-0.3950817 3.9668596 -39.647858 4.9731424e-39
9.4424524 11.398679 -37.772945 3.5956268e-39
10.478358 11.436936 -37.772945 1.751717e-39
-95.500443 -369.17444 -1903.7561 1.9357453e-39
-0.32522565 -0.128362 -99.587265 1.5193189e-38
11.595952 11.438851 -37.772945 3.7803796e-39
0.25778601 -0.6259957 -99.153976 1.5376141e-38
12.05653 11.419312 -37.772938 5.3473479e-39
-2.6698027 -8.2093105 -101.53366 1.3073769e-38
9.9062271 3.4146612 -39.764313 8.0159583e-39
10.069706 3.6045706 -39.765545 8.7524429e-39
2.8915703 -4.9104571 -41.426975 1.4999087e-38
3.1011214 -4.8971925 -41.095978 1.490761e-38
5.8685579 -4.1711898 -41.798561 6.2599267e-39
6.429481 -4.4389877 -41.594208 6.6283449e-39
6.3277011 -133.58725 -624.18231 9.3016482e-39
7.0136342 -4.966764 -41.029228 1.2430898e-38
7.8960061 -133.58725 -624.18231 9.5775163e-39
2.8978584 -12.174364 -43.193741 3.7753195e-39
3.6159155 -12.22617 -43.348915 3.5912911e-39
4.4227467 -12.196089 -43.41658 3.7753209e-39
5.0585971 -12.098065 -43.545349 4.6961926e-39
-12.247907 -9.8999615 -195.25703 1.2803317e-38
94.651848 -86.393646 -418.40793 5.8943756e-39
-3.4327359 -5.4779401 -88.341354 1.5192469e-38
12.562057 6.4822769 -144.77232 1.9706818e-38
-10.038204 -13.968552 -90.871414 3.2261282e-39
-4.935328 -7.9616442 -59.58548 2.856624e-39
14.25832 4.0187612 -115.72986 1.0864669e-38
-4.6629801 11.170362 -42.211887 1.7981745e-38
-9.1895819 -0.57278401 -104.60198 1.7698694e-38
2.8885851 11.183176 -42.754082 7.2805485e-39
85.28038 -85.417374 -376.98141 5.8021772e-39
-8.5971355 -0.62426263 -104.43005 1.6406149e-38
3.1347187 11.17658 -42.605648 5.989811e-39
86.22757 -85.417374 -376.98141 5.8943728e-39
4.9706402 11.156134 -42.974178 7.0021581e-39
12.800167 -5.1569862 -88.547272 1.2153965e-38
87.174767 -85.417374 -376.98141 5.8943728e-39
5.1225123 11.134241 -42.889557 8.1077854e-39
-3.0964601 3.9662471 -44.068428 4.6065319e-39
-2.8317671 3.9835463 -44.260632 6.5411968e-39
92.648773 -83.636406 -405.0545 6.1713198e-39
38.447369 12.191977 -113.31882 1.770336e-38
-1.2173713 -0.30972368 -104.60251 1.4731491e-38
-0.77933103 -0.83560401 -104.60198 1.4825484e-38
2.7197623 3.0840149 -44.119492 3.4998284e-39
-117.98091 150.93166 -2239.7131 1.0502369e-38
-63.502644 -43.482994 -297.46188 1.5943376e-38
-8.5170469 -14.354289 -137.62134 3.8700543e-39
-7.960176 -14.273519 -137.95334 5.1593455e-39
-8.7721443 -16.274794 -155.40866 5.6196034e-39
-15.016537 0.12976301 -62.934086 1.7975638e-38
-14.620894 0.66264385 -62.522884 1.8067837e-38
10.636217 -2.6914539 -75.545876 9.2969861e-39
-241.78476 -383.67584 -2239.7131 3.22361e-39
0.40404066 -16.339874 -155.40866 1.0588077e-38
91.755852 -80.063461 -392.52704 5.9869216e-39
1.184992 -16.860508 -155.40866 9.0218356e-39
14.502947 -135.70105 -718.39856 1.2061759e-38
16.307978 -135.70105 -718.39856 1.2245432e-38
4.682631 -122.17455 -614.11487 9.6697133e-39
13.817617 -12.52244 -48.681362 9.2230943e-40
-3.8797431 -5.8152509 -93.78109 1.5009157e-38
14.395098 -12.513165 -48.64325 1.1067021e-39
17.47089 -12.413171 -48.495724 8.301166e-40
18.048412 -12.701404 -48.523968 0
-58.517452 -40.822067 -284.1427 1.6035214e-38
-1.1169845 11.689116 -47.803738 1.2072195e-38
-0.89237386 11.514446 -47.580387 9.6751111e-39
-334.50079 -862.71552 -3807.5122 1.5666068e-39
-8.2375717 -0.87402302 -109.41127 1.1700561e-38
-7.8027945 -0.18622799 -109.09777 1.1328172e-38
12.496684 -5.226171 -93.78109 8.8396009e-39
-9.2778416 -29.350632 -264.41058 1.0588442e-38
-1.11242 3.0797729 -49.384075 6.7230769e-39
-0.34684804 3.6188838 -49.589615 5.8025583e-39
0.30058002 3.4267278 -49.274807 4.6976541e-39
11.519135 9.2130938 -136.71542 1.7590994e-38
-15.665812 8.5537024 -65.225372 1.8531326e-38
-9.3841724 -10.770082 -82.147072 5.1597183e-39
-7.2517958 -16.420498 -160.65453 1.0404053e-38
26.741083 11.12759 -212.71019 7.1851172e-39
2.1541901 -14.699594 -142.07135 8.1016799e-39
9.5240068 -10.795302 -82.343872 1.0497676e-38
10.316064 -10.964419 -82.058456 1.1971367e-38
-6.1346922 -1.6574545 -38.571022 1.8066039e-38
-40.135841 8.7520924 -235.03162 1.8712847e-38
-5.9339423 -1.6451793 -38.113247 1.7973843e-38
-109.63748 -234.04378 -1119.8566 1.7517142e-39
-4.4578042 -1.3784335 -38.398426 1.7973843e-38
-411.03409 -891.41547 -3807.5122 1.3825715e-39
-17.322021 -15.916645 -71.839851 2.4881988e-39
-106.82376 -234.04378 -1119.8566 1.8435511e-39
-5.6602149 -9.0805397 -40.985062 2.3956472e-39
11.299417 2.2634511 -96.637985 1.3167036e-38
-401.46744 -891.41547 -3807.5122 1.3825715e-39
6.2810254 -1.1990141 -38.333431 1.2799327e-38
0.81860232 -9.8457327 -40.56303 6.262798e-39
1.028928 -9.7593651 -40.809349 4.7894686e-39
2.9644129 -9.9219007 -40.635136 4.5125272e-39
91.834862 -77.479683 -384.5972 6.6315721e-39
3.4368253 -9.8074465 -40.33308 4.2362962e-39
4.1050239 -9.8619022 -40.809349 4.4206875e-39
-16.097157 16.678379 -68.914307 1.8164344e-38
-15.664574 16.597342 -68.428986 1.8164343e-38
12.648499 -5.001276 -98.640213 6.9967687e-39
-37.352459 -30.483454 -198.30794 4.0562476e-39
-30.328953 -24.097607 -167.73181 1.1336472e-38
11.481483 -9.0690498 -40.248543 1.198539e-39
12.73116 -9.2058401 -40.144588 1.2907374e-39
13.235624 -9.1807737 -40.546429 1.383289e-39
14.172645 -9.1459799 -40.453976 1.6595185e-39
-19.384903 4.214797 -130.84235 1.898871e-38
0.865448 -2.1834669 -85.370232 1.5649854e-38
-133.50954 24.946648 -718.39856 1.8712844e-38
11.880907 1.7337331 -143.13956 2.081461e-38
-7.2645321 -16.504311 -165.54401 1.1047623e-38
12.240557 1.7337331 -143.13956 2.0814251e-38
-6.6406188 -16.71228 -165.54401 1.1508601e-38
1.490308 -14.841022 -147.00819 1.0034906e-38
-34.517101 -27.150358 -185.7323 1.0046452e-38
-14.224648 -13.691435 -270.03632 1.5010238e-38
-13.546162 -13.012948 -270.03632 1.5377226e-38
-12.528433 -13.352192 -270.03632 1.5837128e-38
9.8328371 8.5739717 -70.538773 8.7502835e-39
12.585708 10.389893 -99.673546 5.341569e-39
10.232944 8.5301991 -70.379486 7.8290475e-39
13.281906 10.472813 -99.673782 5.2500922e-39
11.503874 2.5083575 -101.6694 1.399644e-38
-13.715002 3.122004 -59.678875 1.8345501e-38
105.04047 -92.375877 -464.33075 5.3419221e-39
2.372396 7.9192538 -117.51581 5.0653534e-39
6.9805269 -115.32592 -551.81335 9.2090939e-39
3.258198 7.7716208 -117.51581 5.3408641e-39
132.75244 -122.17455 -614.11487 3.9597079e-39
3.772351 5.4965401 -88.136864 5.7092907e-39
-15.163822 -12.819316 -63.108093 4.4232266e-39
3.8977389 3.1171179 -59.58548 1.6942751e-38
-2.1819382 -2.6082697 -90.154312 1.5929318e-38
-14.88301 -12.857873 -63.038284 4.3303107e-39
4.0411282 3.1122479 -59.492378 1.841572e-38
13.734481 -144.82631 -777.04333 1.1324914e-38
11.709455 7.795681 -117.87964 1.0862514e-38
12.116217 7.6239872 -117.51581 8.3768333e-39
-0.26535401 -29.601496 -109.41127 7.3756224e-40
0.0095220003 -29.37962 -109.09777 1.3829288e-39
90.332085 -74.68251 -376.98141 6.6304945e-39
-5.5620742 -16.378885 -170.74046 1.2798618e-38
7.697639 -106.09985 -507.6683 1.013105e-38
0.77862602 -14.992632 -152.30049 1.1324916e-38
-6.0636382 -49.867947 -220.08742 1.5669628e-39
-8.1463976 -28.104618 -232.16537 8.8399624e-39
-5.5106521 -49.867947 -220.08742 1.5669642e-39
38.73912 15.266375 -115.03058 1.8162902e-38
14.020617 -139.87131 -793.23175 1.1508948e-38
-10.381899 -9.2024632 -50.565735 2.8573457e-39
-15.453194 3.4512215 -64.424911 1.8253664e-38
-236.1573 -372.42096 -2239.7131 3.5001969e-39
-252.59579 -513.7254 -2719.6516 2.304525e-39
-6.2948041 3.4581809 -64.770653 1.8712842e-38
-12.430927 18.596899 -154.77692 6.7270216e-39
-245.76247 -513.7254 -2719.6516 2.1201337e-39
-5.6291704 3.2952368 -64.534851 1.640687e-38
-11.605971 18.521606 -154.1503 5.3448102e-39
-13.832245 -10.014892 -262.58707 1.5010236e-38
8.9214191 -9.0672293 -50.69923 1.0036688e-38
9.083189 -9.1016531 -50.654289 9.8530172e-39
-5.4795771 20.444372 -136.5927 1.6583316e-38
-4.1175389 20.241617 -136.96088 1.7042495e-38
-0.230858 -2.434566 -95.187805 1.6757997e-38
0.0083079999 -2.434566 -95.187805 1.6665082e-38
17.978882 -9.8346872 -50.497925 1.9361068e-39
18.397324 -9.7831831 -50.451244 4.6097955e-40
-4.487546 -6.6864223 -37.772945 2.5807546e-39
19.486679 -9.8419189 -50.605087 0
20.154758 -9.6848183 -50.59819 0
25.927015 9.6267643 -198.30794 7.2769513e-39
26.42528 9.3776321 -198.30794 7.1847585e-39
2.8330739 14.247118 -49.617302 8.0181079e-39
5.66083 -6.2598171 -37.772945 1.15093e-38
-178.35611 -517.74371 -2538.3416 1.7513512e-39
3.0713632 14.111797 -49.493317 8.4780099e-39
12.205801 -2.7933154 -95.187805 8.376106e-39
6.1722746 -6.1453271 -37.772938 1.1048676e-38
10.893915 -6.8503532 -37.772938 1.56696e-39
11.238869 -6.7481451 -37.772945 1.7513512e-39
12.278061 10.978398 -109.72658 4.9753018e-39
-13.080048 -17.036707 -57.864929 0
13.797021 2.4818799 -111.98566 1.1416037e-38
14.500452 2.4818799 -111.98566 1.1048333e-38
-55.434822 -42.411762 -275.90668 8.3865653e-39
-3.6635199 9.9546719 -38.408859 1.7981745e-38
-48.425247 -36.90485 -244.0713 1.1059523e-38
-11.594177 18.341021 -159.31013 4.8838362e-39
8.9561195 -9.3959398 -55.665382 1.1047237e-38
-10.25062 -31.576 -255.53773 7.6442975e-39
9.167942 -9.3469257 -55.376701 1.0773174e-38
-9.6085625 -31.576 -255.53773 8.3811423e-39
-22.712667 4.3327169 -145.8817 1.8805036e-38
6.7951918 9.6784334 -38.428577 8.0163114e-39
-2.4962063 1.0531106 -40.614601 1.4372073e-38
7.5693884 9.4782257 -38.458839 9.1222933e-39
6.2959323 5.6267309 -98.13176 1.4827292e-38
16.96199 13.761611 -96.392715 1.5938301e-38
17.204184 13.761611 -96.392715 1.6307085e-38
-11.811874 25.624571 -204.70496 7.0936461e-39
26.620251 9.116785 -203.61028 8.3822199e-39
-16.646709 19.515272 -70.509972 1.7704801e-38
-238.95882 -569.09302 -2379.6951 1.1981803e-39
-181.08813 -373.49942 -2003.9539 2.2123294e-39
13.754748 -6.8143563 -42.757137 1.5676746e-39
-232.97964 -569.09302 -2379.6951 1.1059846e-39
11.536107 10.898106 -114.6841 5.8940253e-39
-0.35840631 0.69251198 -87.395187 1.4088279e-38
-3.2063749 -26.041515 -106.65301 1.3818568e-39
10.050265 -91.416534 -442.73398 1.0958651e-38
-2.670428 -26.220165 -106.65301 1.2896598e-39
1.1072561 0.40039799 -87.529015 1.6019351e-38
-15.074993 -17.779125 -62.520725 1.935388e-39
-14.942482 -17.729612 -62.623726 1.9357453e-39
13.391397 4.699255 -145.8817 1.897069e-38
-5.4640641 -13.561637 -167.73181 1.3719141e-38
-1.4801193 9.2818708 -43.383366 7.5542599e-39
-6.1756244 3.3382244 -74.559898 1.2533574e-38
-5.73106 3.6662774 -74.56694 9.4911122e-39
-8.8179817 20.539116 -146.44278 6.3578817e-39
2.5570829 9.8894615 -43.249069 6.2642399e-39
3.5169361 9.4932222 -43.022736 8.1052715e-39
6.4359112 9.955904 -43.391258 8.4744071e-39
-1.1897116 1.6092306 -45.676208 1.1422882e-38
8.5907001 9.9982748 -43.814869 7.9219578e-39
-206.26357 -333.21875 -2003.9539 3.5005557e-39
-201.22847 -333.21875 -2003.9539 3.1328507e-39
-12.071476 25.136467 -209.20396 7.5539068e-39
9.4876661 1.6655642 -45.419743 1.0042822e-38
24.588272 9.8388271 -208.06078 9.1169081e-39
-15.041399 -1.7178878 -63.038284 1.7882362e-38
11.637166 -2.9544001 -105.17989 4.2323446e-39
-14.88301 -1.7178878 -63.038284 1.7882362e-38
-363.36694 70.891945 -1903.7561 1.8712849e-38
15.843852 -0.73413199 -134.06734 1.4456339e-38
16.180706 -0.397277 -134.06734 1.5377575e-38
0.70638198 0.30739599 -92.640198 1.5743485e-38
-22.544918 -23.837189 -98.640213 2.2116161e-39
-7.11133 -9.7947941 -65.874046 3.5941918e-39
-6.7934165 -9.7321873 -65.823387 4.1473656e-39
-9.1452417 -13.317352 -125.66047 4.9756871e-39
14.39773 -14.043433 -49.384075 9.219591e-40
-6.9110522 -13.929827 -172.28563 1.3074846e-38
-8.8004665 -13.745584 -125.24712 3.5012745e-39
15.506622 -14.242374 -49.470032 6.4536801e-40
16.435089 -14.282721 -49.352299 5.5317098e-40
17.855284 -14.466413 -49.605789 4.6097535e-40
18.387081 -14.314075 -49.623764 1.8438986e-40
19.550617 -14.299663 -49.342342 0
-119.41709 128.29192 -1903.7561 7.1854914e-39
36.458046 -2.7831867 -105.37414 1.696364e-38
-3.3822269 9.2909842 -48.135426 9.306337e-39
-6.1587138 3.1465809 -79.158257 7.6468381e-39
-10.236806 20.811522 -151.09175 5.8969064e-39
-5.408124 3.1729679 -79.82206 1.068965e-38
-9.6166773 20.458523 -151.2924 5.8050695e-39
-13.481064 -8.3729 -188.49071 1.7509622e-38
-7.4079952 -2.5453904 -110.36267 1.2062502e-38
9.5749741 -9.710103 -65.856262 1.1877012e-38
-112.15979 107.39877 -1655.4401 5.7110872e-39
-108.00037 107.39877 -1655.4401 6.6326833e-39
12.836912 7.9100428 -137.95334 1.6669037e-38
-2.5751982 -4.5455933 -81.566902 1.5835686e-38
-103.84095 107.39877 -1655.4401 7.6464709e-39
76.194031 -84.687584 -369.66138 5.3404844e-39
-6.7208972 -12.092409 -83.681595 3.0406607e-39
11.772762 -0.76511598 -139.72569 1.5557656e-38
26.353861 9.5777464 -213.90518 9.3942138e-39
-13.928302 -7.4270339 -264.41058 1.4825491e-38
-17.370689 -15.506938 -266.25961 1.6772782e-38
-0.44933802 4.6845403 -37.772945 1.4555731e-38
0.84247762 4.2687926 -37.772942 9.1176255e-39
1.13164 4.3065333 -37.772942 8.471896e-39
-0.35942751 0.44659799 -97.628517 1.5009157e-38
0.0085209999 0.201299 -97.628517 1.5469056e-38
4.337399 4.7599792 -37.772942 1.022217e-38
-229.37831 -575.14368 -2538.3416 1.4744112e-39
-3.3903275 -7.5925889 -99.465172 1.3719139e-38
-2.7119868 -7.5687003 -99.442368 1.3534745e-38
2.0210299 19.701405 -80.15815 1.0043891e-38
-1.9844 -7.2695098 -99.153969 1.3351432e-38
4.8553486 -3.0561731 -39.011395 9.7601153e-39
6.4722934 -3.8373282 -39.26498 6.4461117e-39
-146.36066 26.983109 -777.04333 1.8712847e-38
8.7921467 -3.6528814 -39.302151 1.0221454e-38
3.9103982 -11.927609 -41.577023 3.9593534e-39
-14.308841 -8.5854101 -193.27473 1.8064239e-38
4.5608196 -11.831367 -41.297615 3.4990955e-39
5.0549431 -11.873729 -41.029228 7.3684197e-40
6.5733099 -11.827786 -41.068592 2.1176072e-39
17.594267 -111.89705 -634.58539 1.2706768e-38
-2.3091199 -2.371191 -115.37916 1.5376504e-38
19.188711 -111.89705 -634.58539 1.2707489e-38
13.71442 -11.976817 -41.029228 0
11.435279 7.0752692 -142.07135 1.9893728e-38
12.327692 7.0752692 -142.07135 1.9247639e-38
-8.5870266 -18.117651 -166.99615 7.922332e-39
11.427354 -0.065001003 -144.22395 1.8046223e-38
-7.9576421 -18.117651 -166.99615 9.4864137e-39
12.333288 -0.065001003 -144.22395 1.7125704e-38
2.9321394 12.004117 -40.897018 1.0228637e-38
-8.1984129 0.210473 -102.07808 1.5943727e-38
3.275224 12.163289 -40.571529 3.5016235e-39
-7.5979562 0.5984 -102.62836 1.1052666e-38
1.88147 -16.136032 -148.73094 7.2733584e-39
5.3574176 12.204458 -40.51701 2.5800315e-39
-13.02027 -34.193111 -288.44791 7.8286944e-39
-1.6259211 4.548326 -42.519234 1.2896927e-38
38.360565 13.154714 -111.82146 1.7979224e-38
9.3163557 4.8490095 -42.1185 7.3691484e-39
1.8748577 19.92771 -85.755081 1.1700171e-38
2.4791858 19.847252 -85.563377 1.1239196e-38
-7.8185358 -13.33864 -135.49866 7.0940132e-39
-14.107574 1.4696029 -60.615051 1.8161107e-38
-13.884287 1.6337037 -60.087029 1.8161107e-38
14.153191 0.468207 -102.35248 1.0956143e-38
0.78490502 -15.885045 -153.52872 1.0403683e-38
-15.087411 -6.710135 -62.572227 1.6681661e-38
-5.7845006 1.4363618 -60.534817 1.8435179e-38
-14.781843 -6.6837878 -62.444527 1.6681662e-38
-3.9251349 -2.173501 -120.4909 1.4825125e-38
-4.3217511 18.606863 -132.66594 1.7228324e-38
-3.9884181 18.606863 -132.66594 1.7688584e-38
7.5593538 -17.657534 -77.07515 6.2624365e-39
-15.155092 -14.703369 -64.534103 2.2126923e-39
-3.901464 -4.870574 -91.526741 1.5653097e-38
3.19924 1.94993 -60.532787 1.2247605e-38
12.613544 5.5039024 -118.49129 1.1600796e-38
13.410404 5.3963695 -118.84575 9.4820949e-39
14.061419 5.0286632 -118.98476 9.6675651e-39
14.78185 -129.11197 -732.21393 1.1784455e-38
12.771202 -4.75559 -91.526741 9.4828137e-39
13.303317 -4.2437916 -91.234436 1.0495525e-38
5.3312221 12.788199 -45.112812 9.3070446e-39
14.002365 -4.2853537 -91.307251 1.3719844e-38
-2.4019527 4.4500866 -47.628986 9.7647998e-39
8.2169132 12.100853 -45.086014 1.2256947e-38
-27.838282 -23.888144 -160.65453 3.7782244e-39
-1.8823251 0.35689199 -107.55685 1.4915882e-38
-2.075187 -5.628458 -138.45499 1.6849473e-38
-9.3326178 -11.134107 -51.901806 2.7637109e-39
-12.404783 3.2783136 -94.40126 1.880468e-38
115.1034 -103.65526 -514.52869 5.0653352e-39
2.83637 -13.830841 -140.49861 9.4838927e-39
-32.546974 -26.355196 -178.75644 6.0831179e-39
-0.36613142 1.8286145 -65.746262 1.2155775e-38
0.19896518 1.5855968 -65.461708 1.2154699e-38
-356.27341 -792.98376 -3461.3748 1.4751301e-39
12.085181 5.8268781 -123.22046 1.5746361e-38
-5.0727959 -8.0710773 -38.852165 2.1197736e-39
18.468166 -11.417198 -51.377129 1.1063462e-39
-4.7036858 -8.581562 -38.468937 1.9346691e-39
19.651428 -11.130632 -51.107548 0
0.21042584 -8.7760649 -38.308617 7.3680652e-39
-347.57645 -792.98376 -3461.3748 1.3825757e-39
11.775396 -4.234468 -96.230438 5.7985913e-39
8.3597927 -6.7010946 -67.697021 6.351042e-39
12.339293 -4.5565772 -96.230438 6.3506832e-39
-411.03409 -680.94891 -3807.5122 2.4889163e-39
94.66288 -82.335022 -413.86002 5.8943756e-39
6.126822 -118.71676 -604.367 1.0129611e-38
3.1314163 4.8991709 -52.955666 5.341576e-39
12.104045 2.247854 -141.54321 2.0905725e-38
34.616959 -31.826195 -162.0218 4.1437391e-39
130.09872 -118.3566 -594.92377 4.2362948e-39
-1.3955581 7.1770849 -39.772217 1.1146288e-38
92.680542 -79.73497 -400.79077 5.9865684e-39
36.971539 16.66573 -108.16796 1.7980309e-38
37.129837 16.191002 -108.6311 1.7795915e-38
-14.124475 -12.921308 -268.13467 1.4918043e-38
2.6394725 7.4006214 -39.614178 1.3815641e-38
-12.777058 -12.921308 -268.13467 1.5837486e-38
3.5645106 7.582397 -39.541428 1.2618893e-38
4.0537791 7.546937 -39.9669 1.4184421e-38
7.9429488 7.9219618 -39.011395 1.3173503e-38
8.4539814 7.8295207 -39.37479 1.4648996e-38
9.0547743 7.5620437 -39.588787 1.4833023e-38
-111.42641 137.23175 -2115.2847 9.7655215e-39
-18.220104 -22.022488 -76.764359 1.7509967e-39
-17.930788 -22.118925 -76.764359 1.7513568e-39
-274.02274 -415.69931 -2538.3416 3.3168847e-39
1.772429 12.210777 -55.181686 9.9488197e-39
-17.308973 17.463251 -71.785728 1.7889195e-38
-45.47971 -35.687946 -232.16537 5.2529943e-39
12.476029 -4.8798561 -101.26363 6.0751739e-39
15.554661 -2.1383665 -130.69299 1.1230929e-38
16.12023 -2.3602281 -130.84235 1.1691546e-38
-26.39069 -21.880627 -152.30049 5.9891216e-39
3.9211869 6.918571 -86.53437 5.9873041e-39
4.5943427 6.7317462 -86.929504 6.0798683e-39
11.333323 8.5122719 -115.5545 9.1161948e-39
5.0829983 4.9083662 -57.198601 4.6994506e-39
16.381449 10.726043 -144.77232 5.6199677e-39
-6.3348489 -15.738162 -168.474 1.2798261e-38
-35.029732 -26.606388 -188.49071 1.5483841e-38
93.666504 -79.565483 -405.0545 5.9865712e-39
16.494625 -107.89306 -594.92377 1.2429823e-38
-81.960388 15.740147 -453.27527 1.8712846e-38
17.989416 -107.89306 -594.92377 1.2798967e-38
-10.299826 -12.511936 -273.92175 1.6205187e-38
-9.6541405 -8.3585501 -48.4841 2.948821e-39
-3.4171314 12.824402 -60.534161 9.4928806e-39
10.906245 -2.1037719 -135.49866 1.2520954e-38
-11.148485 -28.755409 -277.92059 1.1048342e-38
11.833298 -4.6165519 -106.95259 5.9847804e-39
14.93849 -2.6051764 -135.01816 9.0225558e-39
-9.7518921 -28.755409 -277.92059 1.1324928e-38
-13.737503 -9.2910461 -260.78851 1.5286465e-38
-12.427002 -9.2910461 -260.78851 1.5378302e-38
17.095192 -2.452951 -135.98257 1.2152523e-38
-20.936764 5.1745949 -138.9603 1.8713922e-38
11.399432 8.29737 -120.87341 1.3165961e-38
-0.30523902 -1.6875341 -93.550674 1.4915163e-38
0.126002 -1.456059 -93.78109 1.4454545e-38
16.961893 10.855006 -149.90205 6.2653372e-39
17.338533 10.855006 -149.90205 5.8039989e-39
-7.6294169 -15.585958 -173.85901 1.1969938e-38
-13.049563 18.757042 -152.91214 7.1876396e-39
-12.402655 -6.9447589 -247.24106 1.4917327e-38
-11.781443 -6.9447589 -247.24106 1.5101359e-38
-6.4514942 1.376595 -80.327263 1.1886399e-38
-391.90076 -709.64893 -3807.5122 2.2126951e-39
-15.434367 12.301636 -65.988091 1.8531327e-38
-277.10083 -680.94891 -3807.5122 2.3045278e-39
-5.7684574 16.662903 -123.22046 1.6767347e-38
74.342125 -80.444832 -339.95645 5.3422794e-39
75.196297 -80.444832 -339.95645 5.3426382e-39
18.485722 11.402458 -154.77692 5.6181671e-39
76.050461 -80.444832 -339.95645 5.4348338e-39
3.244276 -129.43593 -634.58539 8.2882194e-39
15.71496 -125.54829 -692.27496 1.1784453e-38
-6.9245977 4.3073959 -67.690865 1.8989427e-38
-12.291874 19.77664 -157.98807 6.3589579e-39
-11.49796 19.379683 -157.98807 5.1600616e-39
5.6763201 -114.20817 -559.92828 8.7481157e-39
-0.26308599 27.479109 -108.47614 9.4907212e-39
18.545464 -2.7109215 -140.49861 1.2797172e-38
-0.4363395 2.132283 -38.891853 6.7241573e-39
6.3703322 6.1724114 -96.638367 1.2525998e-38
-5.849514 -5.9720359 -40.163631 5.0686016e-39
1.6675127 -5.8402047 -40.296814 1.2798612e-38
-127.18622 -820.3877 -4230.5693 1.9357453e-39
2.4560087 -5.7420754 -40.26791 1.123165e-38
3.4450893 -5.330677 -40.454254 1.0124224e-38
-6.4131432 1.7593721 -85.179253 9.8559263e-39
-104.18417 18.306055 -568.2854 1.8803961e-38
-13.649703 -10.337545 -194.26083 1.8155716e-38
11.206198 11.71242 -112.81543 6.9067311e-39
-0.52879649 1.2485189 -85.370232 1.3167768e-38
0.0075019998 1.0410219 -85.948357 1.2706069e-38
1.512336 1.0363441 -85.562073 1.500988e-38
-127.39722 -328.81696 -1813.1011 2.3041677e-39
-122.84167 -328.81696 -1813.1011 2.3960046e-39
-64.528496 -47.583927 -309.55383 1.4193452e-38
14.273556 3.694294 -114.6841 1.1140896e-38
-7.6469979 4.887311 -72.52404 1.8622438e-38
-6.1805272 4.6934719 -72.66304 4.423591e-39
-16.260109 -9.6205158 -270.03632 1.5195354e-38
-5.4863811 4.7172222 -72.515015 5.528491e-39
2.9526489 10.197251 -41.91758 4.9760235e-39
3.2382429 10.231212 -41.469521 5.7132256e-39
70.738998 -77.514389 -331.08801 5.3422808e-39
5.9924321 10.874953 -41.095665 9.1226576e-39
-350.50061 -551.513 -3172.927 3.1332067e-39
6.1215158 10.84918 -41.095665 9.3074076e-39
38.617157 11.871921 -112.98256 1.7611523e-38
17.618774 14.567883 -99.413528 1.6490756e-38
18.040102 14.981247 -99.673096 1.6951735e-38
-0.66686696 -5.8478656 -45.210297 1.1969575e-38
0.63803494 -5.7000175 -45.33709 1.3720574e-38
1.1610824 -5.612555 -45.342251 1.3903888e-38
-14.217448 -0.33775318 -61.528305 1.8067474e-38
-13.907013 -0.39673162 -61.116402 1.7975279e-38
11.102312 -3.1104469 -74.220512 1.1600791e-38
9.9473925 13.36412 -146.44278 6.5404681e-39
10.31534 13.36412 -146.44278 7.0010833e-39
-207.0007 -631.23517 -3172.927 1.8435497e-39
4.6562605 -13.888283 -47.475216 2.7622535e-40
-12.504408 -10.608162 -199.34619 1.2435257e-38
-110.59695 124.97395 -2003.9539 1.0779675e-38
-3.7123227 -25.827055 -109.72658 1.7499163e-39
-38.592407 7.3885889 -229.36821 1.8712844e-38
12.908096 -13.335567 -47.314636 9.2087309e-40
13.323941 -13.519433 -47.286636 5.5317098e-40
-15.405113 -16.513168 -65.669716 1.9357495e-39
76.388237 -80.025887 -349.31305 5.6177873e-39
11.784459 5.538434 -148.73094 2.0630932e-38
12.507473 5.7137804 -148.44159 2.0445104e-38
13.295951 5.454783 -148.49947 1.915472e-38
7.697639 -102.27319 -507.6683 1.0683144e-38
18.566292 -13.676434 -47.587856 0
10.923915 1.3238894 -90.511497 1.335071e-38
11.195673 1.785615 -90.871414 1.1877015e-38
-8.4638329 -1.142362 -108.78606 1.5482029e-38
72.837624 -77.193108 -336.948 5.4333975e-39
-1.3245268 2.6265926 -48.674732 7.920174e-39
-356.27341 -810.37769 -3461.3748 1.3825715e-39
-0.87221831 2.5898678 -48.337318 8.9336112e-39
-1.630504 -1.2790284 -108.78606 1.5099557e-38
11.970195 8.8220425 -135.98257 1.7959055e-38
12.437824 8.6211367 -135.50037 1.6668315e-38
41.220455 11.132833 -117.15422 1.7794119e-38
-15.314034 7.9565649 -64.863922 1.8530968e-38
-9.0988903 -11.292375 -81.444946 4.5161467e-39
-8.9680328 -11.255487 -81.183632 4.3313953e-39
123.85271 -114.20817 -559.92828 4.7891085e-39
-117.16154 -219.66095 -1228.2297 2.5811133e-39
9.9825478 -99.616737 -494.48212 1.1695498e-38
-114.07552 -219.66095 -1228.2297 2.4889191e-39
-54.933842 -38.795437 -270.03632 1.6035573e-38
26.59252 10.002808 -211.52846 8.3822199e-39
-5.1448336 7.2299824 -64.561966 6.0820137e-39
-4.9148064 7.2306485 -64.207901 5.4366471e-39
-3.201721 -17.356405 -159.97951 1.2798971e-38
-2.5937636 -17.520655 -159.64482 1.3444338e-38
-1.6689357 -17.538813 -159.44402 1.3168468e-38
9.9229288 13.462169 -151.69371 4.7898413e-39
91.715118 -81.893982 -396.61588 5.8950889e-39
-234.51591 268.04587 -3461.3748 7.7419036e-39
-143.29221 -467.44724 -2379.6951 2.1201366e-39
9.7585564 -11.327948 -81.706268 1.08661e-38
-6.1551356 -2.3580718 -37.772938 1.7697256e-38
-3.9108746 -0.44656199 -66.33297 1.6300988e-38
10.088144 -11.352309 -81.881981 1.123488e-38
-5.7262201 -2.4949315 -37.772945 1.7605062e-38
-4.5838919 -2.1287127 -37.772942 1.7697255e-38
16.271008 -113.7936 -645.34106 1.2337627e-38
-4.5624614 -6.5737305 -97.462059 1.3720934e-38
-225.81895 268.04587 -3461.3748 7.0965342e-39
-3.1885409 -6.8071771 -97.879494 1.4455267e-38
-2.6556938 -6.8481655 -97.879501 1.3719137e-38
10.852193 1.161644 -95.907112 1.6206619e-38
11.072298 1.5207684 -95.726685 1.464109e-38
8.7347727 -2.959152 -37.772938 9.5778848e-39
-1.0274303 10.467766 -51.337326 1.059347e-38
-0.82156485 10.287939 -51.362942 8.8421162e-39
8.2474709 -108.21175 -543.9303 1.1235596e-38
-11.672738 19.834858 -172.28563 4.6083283e-39
-10.806977 19.834858 -172.28563 5.0675072e-39
5.9014139 -10.714198 -39.785915 4.1433747e-39
-16.121452 15.421684 -67.211212 1.81647e-38
6.309186 -10.78023 -39.632065 4.2355731e-39
-15.690836 15.794034 -67.539162 1.8164343e-38
6.8749075 10.541351 -51.59259 1.0776057e-38
13.912565 -10.716143 -39.73069 1.2910905e-39
14.01323 -10.875509 -39.827534 1.2910905e-39
7.297823 -122.0175 -576.89581 1.0038134e-38
17.594267 -118.27482 -634.58539 1.2245073e-38
-7.0260129 -17.054073 -164.82738 1.0772115e-38
25.566216 10.773705 -216.33592 9.1179885e-39
26.109776 10.773705 -216.33592 8.7502863e-39
-5.723547 7.0874238 -69.101852 6.1734904e-39
1.852524 -15.519837 -146.44278 7.7336177e-39
2.2204731 -15.887786 -146.44278 6.6287093e-39
8.612709 55.464077 -227.99475 9.0293774e-39
9.1855631 55.464077 -227.99475 9.2137686e-39
-6.1213875 -2.3089674 -42.396225 1.7789449e-38
-5.9422989 -2.3548908 -42.258774 1.7697612e-38
9.6782846 7.7941246 -69.991035 5.6185132e-39
1.577293 20.163387 -83.315369 1.1610855e-38
6.0310898 -125.83055 -594.92377 9.0247026e-39
9.8175488 5.3341942 -40.477749 1.4557877e-38
9.0206709 -125.83055 -594.92377 1.0591308e-38
10.891501 1.47312 -100.72784 1.7127498e-38
11.115182 1.721652 -100.46207 1.6207337e-38
-77.521408 -467.44724 -2379.6951 2.0275808e-39
7.7465091 -2.7349203 -42.212181 1.3443973e-38
501.42596 -54.259708 -1523.0049 1.6687772e-38
-71.542252 -467.44724 -2379.6951 1.9353852e-39
4.9864821 -10.98166 -44.068428 3.8675179e-39
-14.138034 -5.8745995 -60.920197 1.6866412e-38
-13.911242 -5.502636 -60.532787 1.6774938e-38
-2.9791961 -1.847374 -118.98476 1.5376144e-38
1.906711 2.167949 -58.218842 8.6555796e-39
-15.124664 -13.739959 -62.726727 2.5800357e-39
2.3215737 2.4961655 -58.369228 8.1967566e-39
14.427149 -10.612275 -44.847023 1.3832876e-39
-14.65961 -13.689734 -62.552601 2.7651472e-39
3.9912369 2.9261911 -58.757904 1.841572e-38
4.1261358 2.9171879 -58.57711 1.8968534e-38
32.738125 -6.8389025 -102.40826 1.6411182e-38
-27.076723 6.273623 -168.474 1.8805762e-38
33.094681 -6.9709339 -102.07808 1.6503019e-38
-35.20401 -28.166616 -189.42847 5.899084e-39
38.910587 14.500011 -114.6841 1.8070706e-38
39.270779 14.355935 -114.6841 1.8071061e-38
1.5614607 20.602865 -88.341354 1.0963685e-38
13.19548 3.995898 -134.54108 1.7865062e-38
14.226353 1.1481655 -105.76423 1.0956859e-38
0.01362 -14.57715 -156.04558 1.3259588e-38
-6.2133698 2.5830157 -63.788807 1.8251149e-38
-5.8214064 2.7648873 -63.539238 1.8526658e-38
-4.633255 -1.913139 -123.22046 1.5008082e-38
-5.2839613 19.755369 -135.98257 1.7043214e-38
-4.4068379 19.565475 -135.25926 1.7042494e-38
11.892742 6.6481056 -121.25835 1.5284306e-38
17.649399 -10.204191 -49.368584 1.6595199e-39
18.273502 -10.169667 -49.858547 0
19.507034 -10.302688 -49.484104 0
0.2540195 -5.4088664 -65.873917 1.3903158e-38
12.881861 -3.585578 -94.01265 8.2846335e-39
13.606783 -3.859915 -94.950432 8.651974e-39
-24.545362 -20.958456 -145.8817 5.0675226e-39
-23.508268 -20.539986 -145.5105 5.2519125e-39
-326.58395 -718.92957 -3172.927 1.4751301e-39
-196.41457 35.734386 -1029.0574 1.8712488e-38
-10.104736 -10.269487 -54.007267 2.8584247e-39
-318.61176 -718.92957 -3172.927 1.3829344e-39
12.474905 3.6229534 -139.72569 2.035255e-38
-6.1114483 8.3416023 -37.772942 1.8257253e-38
-5.667418 8.5388727 -37.772945 1.8165416e-38
36.752743 17.321703 -106.35509 1.8163981e-38
-41.66856 -31.093987 -212.71019 1.5482758e-38
-2.4889476 0.68018734 -39.471493 1.510748e-38
6.7021742 8.8172665 -37.772945 8.9339475e-39
7.6825418 8.5906582 -37.772945 1.0870049e-38
8.23312 8.4297295 -37.772942 1.252813e-38
17.271477 12.904352 -95.426376 1.3450449e-38
-6.0472631 -7.4779968 -41.5214 3.1342885e-39
12.068539 6.7648363 -126.286 1.6575403e-38
-5.8684754 -7.4416156 -41.145367 2.8573429e-39
-0.37496334 -7.1418972 -41.088272 8.5655251e-39
-29.178432 6.2073822 -178.75644 1.8713565e-38
-39.301075 -28.38913 -199.34619 1.5759347e-38
-16.4014 18.720205 -69.101852 1.8072504e-38
11.904171 -3.30127 -99.673782 5.0617521e-39
-45.204075 -34.891857 -230.75832 9.0315774e-39
5.3170352 13.457758 -53.301712 7.5560564e-39
11.96197 -7.6763411 -41.749039 1.751354e-39
12.934413 -7.9034681 -41.840794 1.8435497e-39
13.603177 -7.7207408 -41.681873 1.6595171e-39
15.777731 11.043089 -142.60345 5.435938e-39
16.315184 11.22224 -142.60345 5.8047149e-39
-124.03426 -738.34888 -3807.5122 1.9357453e-39
-8.3527651 2.3815651 -73.932274 1.8619931e-38
-1.3507742 8.6288557 -42.510925 9.3048909e-39
-0.50928897 8.2936459 -42.530132 9.1187045e-39
37.713673 17.113243 -111.98566 1.8163622e-38
-183.88904 31.448866 -976.28522 1.8803964e-38
-11.040877 -32.005604 -259.01443 7.0000099e-39
-8.2343884 19.727345 -145.8817 8.7535247e-39
-11.592921 -11.739232 -271.96515 1.5929681e-38
-1.4894264 0.42749667 -44.587006 1.5379022e-38
8.1444721 8.28125 -42.352802 1.3264981e-38
-156.92918 224.27414 -2719.6516 3.684214e-39
-8.6554327 -7.545485 -46.570633 3.2257666e-39
-2.6789336 13.155978 -58.68626 7.5571326e-39
-0.26543772 -7.3347478 -46.341713 1.0221451e-38
0.023418166 -7.356111 -46.33902 1.0957575e-38
-15.174663 -2.5583897 -62.93409 1.7605778e-38
-373.66736 -610.34753 -3461.3748 2.7644242e-39
14.44557 -1.738573 -133.59692 9.7590391e-39
-14.80483 -2.5197172 -62.66692 1.7605779e-38
11.787537 -3.5810223 -104.17329 4.6018515e-39
2.387131 9.156847 -118.24572 5.9865825e-39
89.783348 -83.022217 -392.52704 6.1691646e-39
-24.486475 4.985795 -154.77692 1.8805399e-38
9.8965836 13.112913 -58.757904 1.0409794e-38
10.059741 13.133181 -58.848721 1.0685299e-38
-161.22969 -485.3847 -2379.6951 1.7513512e-39
-4.1498194 -27.917671 -110.3636 1.38221e-39
-3.8837481 -27.581844 -110.68349 1.4740511e-39
-301.46213 -715.14008 -2928.8557 1.290736e-39
12.417149 9.8119936 -118.98476 2.8580617e-39
-8.1176748 -14.124698 -124.4285 4.0551686e-39
-6.879921 -14.728941 -171.50957 1.2706064e-38
-7.6927471 -14.214016 -124.2943 4.8845691e-39
-10.305339 -18.783131 -66.403 1.5666068e-39
-9.9681625 -18.897255 -66.160126 1.6584423e-39
-248.51163 -600.65479 -2538.3416 1.1981817e-39
-57.80352 -43.677784 -284.1427 1.0690737e-38
-9.3022928 2.5393491 -78.830482 1.8619931e-38
-140.80746 -358.39417 -2003.9539 2.4882002e-39
48.395748 -47.930805 -216.33592 5.4348366e-39
726.13623 -85.421135 -2239.7131 1.6779968e-38
-135.77237 -358.39417 -2003.9539 2.6722313e-39
-235.75607 -600.65479 -2538.3416 1.1056287e-39
-130.73729 -358.39417 -2003.9539 2.6722313e-39
145.26759 -140.38968 -679.9129 4.3284904e-39
9.3738556 -95.875877 -464.33075 1.0959732e-38
10.486575 -1.808369 -138.9603 1.3625502e-38
11.686988 -1.1080544 -138.70764 1.4544581e-38
11.037428 -3.9092009 -109.72658 5.1553771e-39
-10.13881 20.625183 -155.40866 5.5284826e-39
-6.6166239 -23.324612 -220.08742 1.1785186e-38
-9.7483339 20.234709 -155.40866 5.6210369e-39
-195.95038 -321.34116 -1903.7561 3.40836e-39
-4.2023344 -4.7065926 -38.479263 1.0967691e-38
-16.171137 4.2072368 -112.98256 1.8805397e-38
-15.871593 4.4869661 -112.87114 1.8897593e-38
-191.16705 -321.34116 -1903.7561 3.0406551e-39
0.052041501 -4.9808311 -38.733593 1.224616e-38
1.8044056 -4.2567115 -38.405708 9.8465684e-39
2.0477798 -4.4629335 -38.228325 1.362011e-38
4.63238 -4.2605758 -38.382179 1.1320617e-38
5.8001914 -4.2672377 -38.971466 6.810581e-39
8.7677259 -4.5931826 -38.625366 8.9325098e-39
9.2535543 -4.4913387 -38.31316 7.4591832e-39
-6.4019732 2.2738686 -83.636108 1.1240303e-38
-5.8928232 2.1747561 -83.865906 1.1608362e-38
11.10065 -4.0351582 -38.075123 3.2264799e-39
109.20066 -93.433617 -488.14261 3.8682312e-39
16.756445 -114.1612 -604.367 1.2153237e-38
-3.2028539 -5.1748519 -85.179245 1.5468337e-38
-2.9888351 -5.3888712 -85.179245 1.5375066e-38
18.274961 -114.1612 -604.367 1.2245434e-38
-13.246031 -15.559278 -58.321098 1.7513526e-39
-12.867434 -15.605693 -58.219429 1.6591584e-39
-8.2637339 -13.214317 -87.395493 3.1339311e-39
-7.8733969 -13.612105 -87.128426 2.4889163e-39
-7.0411439 5.0776639 -70.119934 1.8990145e-38
-6.5319233 5.2704844 -70.336197 1.4011219e-38
-5.345891 5.3790755 -70.481117 5.1607861e-39
-15.471892 -8.205348 -268.13467 1.5194993e-38
-4.945179 5.2732682 -70.379158 7.0039784e-39
2.8738022 11.301549 -39.643532 7.8329992e-39
-26.490648 4.8954082 -164.82738 1.8805039e-38
3.2607756 11.216084 -39.603176 7.2801883e-39
-6.5563092 -2.4989159 -237.96951 1.5652012e-38
5.7448063 11.686892 -39.656162 6.3589579e-39
-4.7625599 -2.4989159 -237.96951 1.5374345e-38
-1.645843 3.898891 -41.029228 8.1967524e-39
38.248493 12.186543 -110.68349 1.761116e-38
-0.75647098 -0.045759998 -101.53366 1.4916601e-38
1.539528 -0.30087101 -101.53366 1.4549616e-38
2.0497501 -0.30087101 -101.53366 1.4180473e-38
-17.141743 4.2351866 -117.69772 1.8805395e-38
-16.872053 4.6857762 -117.87964 1.8897593e-38
3.7433951 -154.86838 -732.21393 6.72233e-39
-8.1841698 -14.431706 -181.3101 1.2707861e-38
-2.3306415 -8.8853931 -103.465 1.2982286e-38
9.6683817 3.2238116 -41.254494 6.8166935e-39
0.39897603 -8.8853931 -103.465 1.3535454e-38
-3.5098829 -12.37538 -45.112705 7.3756504e-40
18.686028 1.4155465 -130.39426 1.2247236e-38
19.341278 1.5793591 -130.39426 1.2984441e-38
-14.455648 -7.5798988 -61.445038 1.6129569e-38
-5.3844671 0.87142301 -59.58548 1.8158592e-38
-2.5600348 -24.928627 -107.63302 1.5662467e-39
-1.8823251 -24.910984 -107.55685 1.5662467e-39
-3.2987721 -3.0623469 -119.73309 1.5376504e-38
13.195874 -141.02266 -746.57104 1.1970284e-38
7.3359971 -18.164963 -76.764359 4.8805838e-39
-15.204746 -15.41752 -63.872742 1.8431937e-39
-14.848117 -15.299532 -63.841633 2.027585e-39
12.52303 6.1891241 -146.44278 2.0167796e-38
13.258927 6.1891241 -146.44278 1.8509709e-38
12.549457 4.5198593 -117.42541 1.3075205e-38
-10.287107 -15.919806 -63.671135 2.211972e-39
13.270555 4.4905009 -117.60677 1.1324208e-38
-9.7741222 -15.919887 -63.458893 2.2123308e-39
14.183088 4.3760462 -117.51581 1.0311856e-38
-10.800037 20.306538 -165.54401 5.0678646e-39
-8.3558836 -0.75999737 -106.2569 1.5205801e-38
3.9570889 11.105078 -44.952919 5.8965364e-39
-7.985167 -0.047800001 -106.05884 1.1238138e-38
12.430708 -5.266562 -90.441086 1.0220737e-38
5.7402806 11.421671 -44.274021 7.6482478e-39
13.269715 -5.4814191 -90.22541 1.2890808e-38
6.2468033 11.790586 -44.767944 8.2932571e-39
38.73912 12.809679 -115.03058 1.7794838e-38
-1.6657335 -0.45003498 -106.65425 1.5098475e-38
39.028145 12.087122 -115.03058 1.7611166e-38
12.095864 9.0029411 -133.59692 1.611514e-38
9.5561848 -15.277664 -63.884434 4.9724193e-39
-8.5133839 -10.648765 -79.323174 4.884209e-39
-64.002663 -43.072102 -299.80411 1.6035573e-38
-8.398078 -14.780797 -139.46931 3.7778558e-39
-8.3223047 -16.743393 -157.98807 8.0148863e-39
-7.9253478 -16.346436 -157.98807 9.3027413e-39
4.5567551 -4.3316584 -48.318993 1.1782309e-38
5.183825 -4.7136645 -48.503654 6.9938932e-39
8.2785778 -4.7573652 -48.327457 7.3673449e-39
-1.3077787 -16.45624 -157.77046 1.298372e-38
-0.57924199 -16.476547 -157.33522 1.1785897e-38
2.825942 -14.483423 -139.98207 7.5506642e-39
3.3431716 -14.438998 -139.55478 7.0896874e-39
