-6.091232 -9.197463 -38.459721 41 28 13 
-6.181621 -9.188182 -38.420910 46 31 17 
-6.278156 -9.188182 -38.420910 47 34 19 
-6.368266 -9.178919 -38.382179 49 37 21 
-6.464704 -9.178919 -38.382179 45 35 17 
-6.541359 -9.151244 -38.266457 43 33 15 
-6.637507 -9.151244 -38.266457 43 33 16 
-6.754018 -9.178919 -38.382179 45 32 16 
-6.850456 -9.178919 -38.382179 44 32 15 
-6.932917 -9.160451 -38.304951 46 33 17 
-7.043333 -9.178919 -38.382179 48 36 19 
-13.100512 -9.033222 -37.772938 15 15 13 
-13.195418 -9.033222 -37.772938 15 15 13 
-13.290326 -9.033222 -37.772938 15 15 13 
-13.764863 -9.033222 -37.772938 0 0 0 
-13.859770 -9.033222 -37.772938 0 0 0 
-13.954678 -9.033222 -37.772938 0 0 0 
-14.049584 -9.033222 -37.772938 0 0 0 
-14.144492 -9.033222 -37.772938 0 0 0 
-14.239399 -9.033222 -37.772938 0 0 0 
-14.334307 -9.033222 -37.772938 0 0 0 
-14.429214 -9.033222 -37.772938 0 0 0 
-14.524121 -9.033222 -37.772938 0 0 0 
-14.619029 -9.033222 -37.772938 0 0 0 
-14.713936 -9.033222 -37.772938 0 0 0 
-14.808844 -9.033222 -37.772938 0 0 0 
-14.903750 -9.033222 -37.772938 0 0 0 
-14.998658 -9.033222 -37.772938 0 0 0 
-15.093566 -9.033222 -37.772938 0 0 0 
18.693424 -18.932417 -78.343872 19 18 14 
18.650078 -19.089533 -78.994034 20 19 15 
18.413399 -19.050009 -78.830482 22 21 16 
18.102890 -18.932417 -78.343872 23 22 18 
17.335335 -18.328993 -75.846855 24 22 21 
17.009232 -18.184099 -75.247276 25 23 25 
16.494196 -17.831696 -73.788994 27 25 27 
16.121338 -17.626734 -72.940849 29 27 28 
15.877235 -17.559456 -72.662445 28 27 26 
15.605323 -17.459496 -72.248810 26 25 23 
15.394580 -17.426430 -72.111977 23 22 19 
15.184635 -17.393486 -71.975655 20 19 15 
15.003791 -17.393486 -71.975655 20 19 15 
5.797525 -9.788463 -40.505451 13 12 7 
5.689699 -9.778060 -40.462406 13 12 7 
5.570276 -9.746985 -40.333817 13 12 7 
5.468934 -9.746985 -40.333817 13 12 7 
5.356244 -9.726379 -40.248543 13 12 7 
5.249568 -9.716108 -40.206043 13 12 7 
5.143116 -9.705859 -40.163631 12 11 7 
5.042202 -9.705859 -40.163631 13 12 8 
4.936080 -9.695632 -40.121311 15 14 11 
4.845485 -9.716108 -40.206043 16 15 12 
4.703038 -9.840807 -40.722057 16 15 12 
4.576249 -9.788463 -40.505451 14 13 11 
4.464976 -9.767680 -40.419453 14 13 11 
4.349567 -9.736671 -40.291134 13 12 12 
4.248333 -9.736671 -40.291134 13 12 12 
161.641693 -707.781128 -2928.855713 12 10 11 
154.282730 -707.781128 -2928.855713 14 12 13 
146.923752 -707.781128 -2928.855713 14 11 12 
201.593582 -1022.350525 -4230.569336 16 13 13 
122.762543 -657.225342 -2719.651611 16 11 11 
95.471115 -541.244385 -2239.713135 15 10 9 
89.843674 -541.244385 -2239.713135 16 11 9 
89.479736 -575.072144 -2379.695068 15 11 8 
95.429230 -657.225342 -2719.651611 24 20 16 
95.410965 -707.781128 -2928.855713 82 75 68 
-4.743162 -9.303493 -38.498608 42 30 17 
-4.830125 -9.284717 -38.420910 39 28 14 
-4.906855 -9.247392 -38.266457 37 26 12 
-4.938479 -9.128130 -37.772938 38 27 12 
-5.033386 -9.128130 -37.772938 39 28 14 
-5.128294 -9.128130 -37.772938 40 27 14 
-5.223201 -9.128130 -37.772938 39 26 12 
-5.318109 -9.128130 -37.772938 39 26 12 
-5.461782 -9.210365 -38.113235 40 28 14 
-5.563113 -9.219594 -38.151424 38 25 11 
-5.676033 -9.247392 -38.266457 37 24 10 
-5.777988 -9.256695 -38.304951 37 24 11 
-5.897966 -9.294095 -38.459721 37 24 11 
-5.994599 -9.294095 -38.459721 37 24 11 
-6.091232 -9.294095 -38.459721 38 26 12 
-6.181621 -9.284717 -38.420910 42 29 16 
-6.278156 -9.284717 -38.420910 44 33 18 
-6.368266 -9.275357 -38.382179 45 34 19 
-6.464704 -9.275357 -38.382179 43 34 17 
-6.554534 -9.266017 -38.343529 42 33 16 
-6.664298 -9.284717 -38.420910 42 33 16 
-6.760833 -9.284717 -38.420910 42 30 14 
-6.850456 -9.275357 -38.382179 41 29 13 
-6.946894 -9.275357 -38.382179 44 32 16 
-7.043333 -9.275357 -38.382179 48 36 19 
-13.954678 -9.128130 -37.772938 0 0 0 
-14.049584 -9.128130 -37.772938 0 0 0 
-14.144492 -9.128130 -37.772938 0 0 0 
-14.239399 -9.128130 -37.772938 0 0 0 
-14.334307 -9.128130 -37.772938 0 0 0 
-14.429214 -9.128130 -37.772938 0 0 0 
-14.524121 -9.128130 -37.772938 0 0 0 
-14.619029 -9.128130 -37.772938 0 0 0 
-14.713936 -9.128130 -37.772938 0 0 0 
-14.808844 -9.128130 -37.772938 0 0 0 
-14.903750 -9.128130 -37.772938 0 0 0 
-14.998658 -9.128130 -37.772938 0 0 0 
-15.093566 -9.128130 -37.772938 0 0 0 
18.693424 -19.129261 -78.343872 20 18 17 
18.611465 -19.248077 -78.830482 21 19 17 
18.299734 -19.129261 -78.343872 21 20 18 
17.809727 -18.819475 -77.075150 22 21 20 
17.439554 -18.630903 -76.302849 24 23 23 
17.076729 -18.446074 -75.545876 25 23 25 
16.623056 -18.157854 -74.365471 23 21 23 
16.277250 -17.982246 -73.646271 22 20 21 
15.938068 -17.810001 -72.940849 21 20 19 
15.724675 -17.775949 -72.801384 22 21 19 
15.453115 -17.674564 -72.386162 24 23 20 
15.213393 -17.607616 -72.111977 26 25 21 
15.032207 -17.607616 -72.111977 26 25 21 
5.791364 -9.879725 -40.462406 12 11 8 
5.677632 -9.858771 -40.376587 12 11 7 
5.570276 -9.848328 -40.333817 12 11 7 
5.468934 -9.848328 -40.333817 12 11 7 
5.356244 -9.827506 -40.248543 13 12 8 
5.249568 -9.817129 -40.206043 13 12 8 
5.143116 -9.806773 -40.163631 13 12 8 
5.031587 -9.786127 -40.079075 13 12 9 
4.930885 -9.786127 -40.079075 14 13 11 
4.586007 -9.911324 -40.591816 14 13 11 
4.455516 -9.848328 -40.333817 14 13 11 
4.354175 -9.848328 -40.333817 14 14 12 
4.248333 -9.837906 -40.291134 14 14 12 
131.333878 -581.051331 -2379.695068 12 10 11 
100.283775 -464.841064 -1903.756104 14 12 13 
41.521931 -202.104813 -827.720032 14 11 12 
38.603027 -197.804703 -810.109009 17 13 14 
36.567566 -197.804703 -810.109009 17 12 12 
34.532108 -197.804703 -810.109009 15 9 9 
80.386444 -489.306366 -2003.953857 15 10 8 
102.262558 -664.058655 -2719.651611 17 13 10 
-4.655847 -9.419271 -38.576618 38 26 14 
-4.743162 -9.400224 -38.498608 36 26 14 
-4.830125 -9.381252 -38.420910 34 25 13 
-4.906855 -9.343539 -38.266457 35 26 12 
-4.938479 -9.223037 -37.772938 35 26 12 
-5.033386 -9.223037 -37.772938 35 27 12 
-5.128294 -9.223037 -37.772938 37 26 13 
-5.223201 -9.223037 -37.772938 37 26 13 
-5.382182 -9.334158 -38.228035 37 26 13 
-5.478233 -9.334158 -38.228035 37 25 12 
-5.574284 -9.334158 -38.228035 35 23 10 
-5.676033 -9.343539 -38.266457 35 24 11 
-5.777988 -9.352939 -38.304951 35 24 11 
-5.880147 -9.362358 -38.343529 36 24 11 
-5.994599 -9.390728 -38.459721 35 24 11 
-6.097391 -9.400224 -38.498608 36 25 12 
-6.187865 -9.390728 -38.459721 39 28 15 
-6.284498 -9.390728 -38.459721 41 32 17 
-6.374691 -9.381252 -38.420910 39 30 15 
-6.471227 -9.381252 -38.420910 39 30 14 
-6.574397 -9.390728 -38.459721 41 32 16 
-6.677775 -9.400224 -38.498608 41 32 16 
-6.767663 -9.390728 -38.459721 41 31 15 
-6.850456 -9.371796 -38.382179 41 30 15 
-6.932917 -9.352939 -38.304951 45 33 17 
-7.029160 -9.352939 -38.304951 48 36 20 
-14.144492 -9.223037 -37.772938 0 0 0 
-14.239399 -9.223037 -37.772938 0 0 0 
-14.334307 -9.223037 -37.772938 0 0 0 
-14.429214 -9.223037 -37.772938 0 0 0 
-14.524121 -9.223037 -37.772938 0 0 0 
-14.619029 -9.223037 -37.772938 0 0 0 
-14.713936 -9.223037 -37.772938 0 0 0 
-14.808844 -9.223037 -37.772938 0 0 0 
-14.903750 -9.223037 -37.772938 0 0 0 
-14.998658 -9.223037 -37.772938 0 0 0 
-15.244803 -9.315452 -38.151424 0 0 0 
18.465456 -19.090422 -77.388458 20 18 19 
18.496580 -19.326107 -78.343872 20 18 20 
18.150349 -19.168343 -77.704330 21 19 20 
17.809727 -19.013134 -77.075150 21 19 21 
17.474575 -18.860416 -76.456070 21 19 21 
17.144764 -18.710135 -75.846855 20 18 21 
16.688244 -18.416643 -74.657104 21 19 21 
16.372253 -18.273323 -74.076111 23 21 22 
16.092209 -18.167288 -73.646271 24 23 22 
15.754799 -17.993271 -72.940849 26 25 22 
15.541756 -17.958868 -72.801384 27 26 22 
15.271239 -17.856441 -72.386162 27 26 22 
15.089363 -17.856441 -72.386162 25 24 19 
5.791364 -9.981390 -40.462406 12 11 10 
5.677632 -9.960220 -40.376587 12 11 8 
5.570276 -9.949669 -40.333817 12 11 8 
5.468934 -9.949669 -40.333817 12 11 8 
5.361912 -9.939140 -40.291134 13 12 9 
5.249568 -9.918150 -40.206043 13 12 9 
5.143116 -9.907687 -40.163631 14 13 10 
5.031587 -9.886829 -40.079075 14 13 10 
4.930885 -9.886829 -40.079075 14 13 11 
4.455516 -9.949669 -40.333817 14 13 11 
4.354175 -9.949669 -40.333817 14 14 12 
46.744865 -199.840164 -810.109009 11 11 12 
53.880566 -240.833023 -976.285217 12 11 12 
43.601639 -204.184509 -827.720032 14 12 13 
39.791851 -195.676834 -793.231750 15 12 13 
37.798798 -195.676834 -793.231750 16 11 12 
35.075012 -191.683426 -777.043335 17 11 12 
33.122635 -191.683426 -777.043335 14 8 8 
29.947891 -184.166428 -746.571045 13 8 6 
-4.563543 -9.525849 -38.615742 35 25 11 
-4.655847 -9.516198 -38.576618 35 25 13 
-4.743162 -9.496954 -38.498608 35 24 13 
-4.830125 -9.477788 -38.420910 33 24 12 
-4.916738 -9.458698 -38.343529 33 25 12 
-4.982970 -9.401890 -38.113235 34 25 12 
-5.033386 -9.317945 -37.772938 34 25 13 
-5.128294 -9.317945 -37.772938 35 25 13 
-5.478233 -9.430208 -38.228035 33 23 11 
-5.574284 -9.430208 -38.228035 32 22 10 
-5.681744 -9.449183 -38.304951 34 24 12 
-5.783806 -9.458698 -38.343529 35 25 13 
-5.880147 -9.458698 -38.343529 35 25 13 
-5.994599 -9.487361 -38.459721 35 24 12 
-6.097391 -9.496954 -38.498608 35 25 13 
-6.194121 -9.496954 -38.498608 38 28 16 
-6.290852 -9.496954 -38.498608 40 31 17 
-6.381131 -9.487361 -38.459721 37 28 13 
-6.497453 -9.516198 -38.576618 36 27 12 
-6.767663 -9.487361 -38.459721 42 31 17 
-6.850456 -9.468234 -38.382179 42 31 16 
-6.918995 -9.430208 -38.228035 45 33 17 
-7.015046 -9.430208 -38.228035 48 35 19 
-14.239399 -9.317945 -37.772938 0 0 0 
-14.334307 -9.317945 -37.772938 0 0 0 
-14.429214 -9.317945 -37.772938 0 0 0 
-14.524121 -9.317945 -37.772938 0 0 0 
-14.619029 -9.317945 -37.772938 0 0 0 
-14.713936 -9.317945 -37.772938 0 0 0 
-14.808844 -9.317945 -37.772938 0 0 0 
-14.903750 -9.317945 -37.772938 0 0 0 
-15.148945 -9.411310 -38.151424 0 0 0 
18.465456 -19.284866 -77.388458 20 18 21 
18.150349 -19.363581 -77.704330 19 17 21 
17.809727 -19.206791 -77.075150 19 17 22 
17.509735 -19.090855 -76.609901 21 19 23 
17.247839 -19.014338 -76.302849 24 22 25 
16.688244 -18.604225 -74.657104 26 24 26 
16.404167 -18.495428 -74.220512 28 26 27 
16.154701 -18.423601 -73.932274 27 26 25 
15.907166 -18.352329 -73.646271 25 24 21 
15.571529 -18.176540 -72.940849 22 21 17 
15.358837 -18.141787 -72.801384 19 18 14 
5.911876 -10.115303 -40.591816 13 12 11 
5.791364 -10.083055 -40.462406 12 10 11 
5.677632 -10.061669 -40.376587 12 10 10 
5.570276 -10.051011 -40.333817 12 11 9 
5.468934 -10.051011 -40.333817 12 11 9 
5.361912 -10.040375 -40.291134 13 12 10 
5.260677 -10.040375 -40.291134 14 13 11 
5.148547 -10.019171 -40.206043 13 12 10 
5.036889 -9.998055 -40.121311 12 11 9 
4.936080 -9.998055 -40.121311 12 11 9 
38.429634 -97.816025 -392.527039 14 15 10 
37.443378 -97.816025 -392.527039 14 15 10 
36.457127 -97.816025 -392.527039 14 15 10 
35.470871 -97.816025 -392.527039 15 16 11 
33.787960 -95.839943 -384.597198 15 16 11 
32.493412 -94.881546 -380.751221 14 15 10 
60.993084 -201.875626 -810.109009 13 14 9 
54.333496 -186.042236 -746.571045 13 13 9 
46.126583 -163.588867 -656.467651 12 12 9 
42.994587 -158.135910 -634.585388 13 11 10 
49.757122 -197.669876 -793.231750 12 12 11 
43.258022 -179.021774 -718.398560 11 11 11 
39.945614 -172.511902 -692.274963 11 11 11 
39.647964 -179.021774 -718.398560 12 11 12 
36.466827 -172.511902 -692.274963 14 12 13 
37.451153 -186.042236 -746.571045 15 12 13 
37.027393 -193.635803 -777.043335 15 10 11 
35.075012 -193.635803 -777.043335 16 11 11 
31.823706 -186.042236 -746.571045 14 9 8 
29.371969 -182.464508 -732.213928 12 8 5 
-4.582132 -9.662071 -38.773037 36 24 11 
-4.660568 -9.622874 -38.615742 36 23 11 
-4.752773 -9.613125 -38.576618 36 24 12 
-4.825256 -9.564672 -38.382179 34 24 11 
-4.916738 -9.555039 -38.343529 33 23 10 
-4.997979 -9.526259 -38.228035 34 24 11 
-5.033386 -9.412851 -37.772938 35 24 11 
-5.128294 -9.412851 -37.772938 34 23 10 
-5.275538 -9.507169 -38.151424 34 23 10 
-5.382182 -9.526259 -38.228035 33 22 10 
-5.478233 -9.526259 -38.228035 34 23 10 
-5.574284 -9.526259 -38.228035 34 23 10 
-5.681744 -9.545427 -38.304951 36 25 12 
-5.783806 -9.555039 -38.343529 38 27 14 
-5.880147 -9.555039 -38.343529 37 26 13 
-5.988550 -9.574324 -38.420910 37 24 12 
-6.097391 -9.593685 -38.498608 37 25 12 
-6.194121 -9.593685 -38.498608 39 27 14 
-6.303600 -9.613125 -38.576618 40 28 15 
-6.760833 -9.574324 -38.420910 43 30 15 
-6.829802 -9.535833 -38.266457 43 30 14 
-6.898217 -9.497652 -38.113235 46 33 17 
-6.993980 -9.497652 -38.113235 51 36 20 
-14.239399 -9.412851 -37.772938 0 0 0 
-14.334307 -9.412851 -37.772938 0 0 0 
-14.429214 -9.412851 -37.772938 0 0 0 
-14.524121 -9.412851 -37.772938 0 0 0 
-14.619029 -9.412851 -37.772938 0 0 0 
-14.713936 -9.412851 -37.772938 0 0 0 
-14.808844 -9.412851 -37.772938 0 0 0 
-14.903750 -9.412851 -37.772938 0 0 0 
-15.179365 -9.526259 -38.228035 0 0 0 
18.251831 -19.053322 -75.696068 20 18 23 
18.061640 -19.053322 -75.696068 20 17 22 
18.496580 -19.719797 -78.343872 19 16 21 
18.150349 -19.558819 -77.704330 18 16 21 
17.809727 -19.400448 -77.075150 18 16 21 
17.509735 -19.283342 -76.609901 19 17 21 
17.213343 -19.167643 -76.150246 21 19 21 
16.721031 -18.828726 -74.803780 21 19 20 
16.436207 -18.718401 -74.365471 21 19 20 
16.154701 -18.609362 -73.932274 22 20 20 
15.968942 -18.609362 -73.932274 23 23 20 
15.571529 -18.359810 -72.940849 25 25 21 
15.388260 -18.359810 -72.940849 27 26 22 
5.911876 -10.217293 -40.591816 12 11 11 
5.791364 -10.184719 -40.462406 11 10 10 
5.683659 -10.173907 -40.419453 11 10 9 
5.576182 -10.163118 -40.376587 11 10 8 
5.468934 -10.152352 -40.333817 11 10 8 
5.361912 -10.141609 -40.291134 11 11 9 
5.260677 -10.141609 -40.291134 12 12 10 
5.153989 -10.130889 -40.248543 11 10 8 
5.042202 -10.109516 -40.163631 10 10 8 
4.936080 -10.098863 -40.121311 11 11 9 
38.429634 -98.802277 -392.527039 14 14 11 
37.061302 -97.794090 -388.521667 13 13 10 
36.085114 -97.794090 -388.521667 14 13 10 
34.754288 -96.806274 -384.597198 15 14 11 
33.787960 -96.806274 -384.597198 15 14 11 
32.493412 -95.838211 -380.751221 14 14 11 
70.531944 -228.186218 -906.550537 13 12 9 
55.128365 -184.304245 -732.213928 13 13 10 
47.776005 -165.238297 -656.467651 13 13 10 
44.589027 -159.730347 -634.585388 13 12 9 
41.607662 -154.577759 -614.114868 13 12 8 
40.064651 -154.577759 -614.114868 13 12 9 
38.521645 -154.577759 -614.114868 12 12 9 
36.978634 -154.577759 -614.114868 12 11 9 
36.616810 -159.730347 -634.585388 12 11 9 
35.022369 -159.730347 -634.585388 13 12 10 
33.427925 -159.730347 -634.585388 15 14 12 
34.727432 -174.251297 -692.274963 15 13 12 
-4.223604 -15.092631 -59.960823 41 25 12 
-4.825256 -9.661110 -38.382179 38 24 10 
-4.921694 -9.661110 -38.382179 37 24 11 
-5.003002 -9.631981 -38.266457 37 24 11 
-5.099149 -9.631981 -38.266457 37 24 11 
-5.128294 -9.507759 -37.772938 37 24 11 
-5.275538 -9.603027 -38.151424 37 24 11 
-5.371396 -9.603027 -38.151424 37 25 11 
-5.467255 -9.603027 -38.151424 37 25 11 
-5.574284 -9.622311 -38.228035 38 26 12 
-5.670334 -9.622311 -38.228035 40 28 14 
-5.772181 -9.631981 -38.266457 41 28 15 
-5.868328 -9.631981 -38.266457 40 27 13 
-5.976489 -9.651381 -38.343529 40 26 13 
-6.085085 -9.670858 -38.420910 41 27 14 
-6.194121 -9.690415 -38.498608 43 28 15 
-6.754018 -9.661110 -38.382179 43 30 14 
-6.809271 -9.603027 -38.151424 43 30 14 
-6.836626 -9.507759 -37.772938 48 33 17 
-6.993980 -9.593414 -38.113235 53 37 21 
-14.334307 -9.507759 -37.772938 0 0 0 
-14.429214 -9.507759 -37.772938 0 0 0 
-14.524121 -9.507759 -37.772938 0 0 0 
-14.619029 -9.507759 -37.772938 0 0 0 
-14.713936 -9.507759 -37.772938 0 0 0 
-14.808844 -9.507759 -37.772938 0 0 0 
-14.903750 -9.507759 -37.772938 0 0 0 
-15.732203 -9.972758 -39.620316 0 0 0 
-15.831753 -9.972758 -39.620316 0 0 0 
18.001316 -18.979387 -74.657104 22 17 21 
17.813734 -18.979387 -74.657104 21 16 20 
18.611465 -20.040346 -78.830482 20 15 19 
18.413399 -20.040346 -78.830482 20 15 19 
17.918543 -19.713823 -77.546074 21 16 20 
17.509735 -19.475830 -76.609901 22 19 22 
17.213343 -19.358974 -76.150246 23 21 22 
16.721031 -19.016676 -74.803780 24 22 23 
16.436207 -18.905249 -74.365471 25 23 24 
16.186132 -18.831688 -74.076111 25 24 25 
15.968942 -18.795122 -73.932274 24 24 23 
15.661538 -18.650265 -73.362473 23 23 22 
15.477210 -18.650265 -73.362473 22 22 21 
5.918186 -10.330297 -40.635136 11 11 9 
5.803699 -10.308293 -40.548588 10 10 8 
5.689699 -10.286385 -40.462406 9 9 7 
5.576182 -10.264568 -40.376587 9 9 7 
5.474733 -10.264568 -40.376587 9 9 7 
5.367592 -10.253695 -40.333817 10 10 8 
5.266250 -10.253695 -40.333817 10 10 8 
5.159443 -10.242844 -40.291134 9 9 7 
5.047526 -10.221211 -40.206043 10 10 8 
4.941288 -10.210430 -40.163631 10 10 8 
4.353921 -9.797052 -38.537575 12 12 10 
4.455516 -10.253695 -40.333817 13 12 10 
4.354175 -10.253695 -40.333817 13 12 10 
4.051135 -9.767394 -38.420910 12 11 9 
3.954599 -9.767394 -38.420910 13 12 10 
37.061302 -98.770279 -388.521667 13 12 10 
36.085114 -98.770279 -388.521667 14 13 11 
35.108925 -98.770279 -388.521667 15 14 12 
33.787960 -97.772598 -384.597198 15 14 12 
54.088207 -182.631836 -718.398560 13 12 10 
47.776005 -166.887711 -656.467651 14 13 11 
45.344776 -164.059113 -645.341064 14 13 10 
42.289757 -158.680130 -624.182312 14 13 8 
40.064651 -156.120773 -614.114868 14 13 8 
37.910187 -153.642654 -604.367004 13 12 9 
35.823051 -151.241989 -594.923767 12 11 9 
34.873154 -153.642654 -604.367004 12 11 9 
33.354637 -153.642654 -604.367004 13 12 10 
31.836119 -153.642654 -604.367004 14 13 11 
-2.339086 -9.846885 -38.733593 44 28 13 
-4.041128 -15.124199 -59.492378 42 26 11 
-4.164578 -15.030260 -59.122860 42 26 11 
-4.293130 -14.960568 -58.848721 44 28 13 
-4.427306 -14.914465 -58.667370 45 29 14 
-4.574712 -14.914465 -58.667370 46 30 15 
-5.200523 -9.737915 -38.304951 41 26 13 
-5.275538 -9.698885 -38.151424 41 27 14 
-5.371396 -9.698885 -38.151424 42 28 15 
-5.467255 -9.698885 -38.151424 41 28 15 
-5.563113 -9.698885 -38.151424 43 30 16 
-5.670334 -9.718361 -38.228035 43 30 16 
-5.772181 -9.728128 -38.266457 41 27 14 
-5.862436 -9.718361 -38.228035 39 25 12 
-5.970476 -9.737915 -38.304951 41 27 14 
-6.078951 -9.757548 -38.382179 44 30 17 
-6.194121 -9.787147 -38.498608 46 30 17 
-6.754018 -9.757548 -38.382179 44 31 15 
-6.809271 -9.698885 -38.151424 44 30 14 
-6.836626 -9.602666 -37.772938 48 32 16 
-15.038373 -10.419254 -40.985062 0 0 0 
-14.429214 -9.602666 -37.772938 0 0 0 
-14.524121 -9.602666 -37.772938 0 0 0 
-14.619029 -9.602666 -37.772938 0 0 0 
-14.713936 -9.602666 -37.772938 0 0 0 
-14.808844 -9.602666 -37.772938 0 0 0 
-14.903750 -9.602666 -37.772938 0 0 0 
-15.732203 -10.072308 -39.620316 0 0 0 
-15.848244 -10.082800 -39.661587 0 0 0 
18.809532 -20.238415 -78.830482 19 16 19 
18.650078 -20.280403 -78.994034 18 15 18 
18.413399 -20.238415 -78.830482 18 15 18 
18.102890 -20.113485 -78.343872 19 16 19 
17.616070 -19.787762 -77.075150 19 17 18 
17.247839 -19.589487 -76.302849 19 17 18 
16.721031 -19.204626 -74.803780 21 19 20 
16.436207 -19.092098 -74.365471 22 20 21 
16.217684 -19.054882 -74.220512 22 21 22 
15.968942 -18.980883 -73.932274 21 21 21 
15.661538 -18.834595 -73.362473 20 20 20 
15.447446 -18.798374 -73.221390 20 20 20 
5.937195 -10.465904 -40.765656 11 11 9 
5.809886 -10.421273 -40.591816 10 10 8 
5.701818 -10.410175 -40.548588 10 10 8 
5.588034 -10.388049 -40.462406 10 10 8 
5.474733 -10.366017 -40.376587 10 10 8 
5.373284 -10.366017 -40.376587 9 9 7 
5.266250 -10.355036 -40.333817 9 9 7 
5.159443 -10.344078 -40.291134 9 9 7 
5.047526 -10.322232 -40.206043 9 9 7 
4.941288 -10.311344 -40.163631 10 10 8 
4.820035 -10.268019 -39.994877 10 10 8 
4.655966 -10.129693 -39.456085 11 11 9 
4.450750 -9.893881 -38.537575 11 11 9 
4.349519 -9.883877 -38.498608 11 11 9 
4.248492 -9.873893 -38.459721 12 12 10 
4.139316 -9.844063 -38.343529 13 12 10 
4.047050 -9.853986 -38.382179 12 11 9 
3.950613 -9.853986 -38.382179 12 11 9 
3.854174 -9.853986 -38.382179 14 13 11 
3.757736 -9.853986 -38.382179 14 13 11 
65.829811 -217.225647 -846.113831 13 12 10 
59.722393 -203.649048 -793.231750 13 12 10 
56.551189 -199.492950 -777.043335 14 13 11 
50.478146 -184.436874 -718.398560 14 13 10 
43.723309 -165.680573 -645.341064 14 13 9 
40.064651 -157.663773 -614.114868 14 13 9 
37.317841 -152.736786 -594.923767 14 13 9 
35.823051 -152.736786 -594.923767 13 12 9 
34.328262 -152.736786 -594.923767 12 11 9 
32.833469 -152.736786 -594.923767 13 11 10 
31.338678 -152.736786 -594.923767 13 11 12 
-2.241765 -9.944205 -38.733593 45 29 14 
-2.324896 -9.883877 -38.498608 44 28 13 
-2.424078 -9.893881 -38.537575 44 28 13 
-4.016027 -15.178811 -59.122860 43 27 12 
-4.132493 -15.061871 -58.667370 43 27 12 
-4.260207 -14.992568 -58.397427 44 28 13 
-4.400186 -14.969608 -58.307999 46 30 15 
-4.539737 -14.946719 -58.218842 47 31 16 
-4.693192 -14.969608 -58.307999 47 31 16 
-5.478233 -9.814412 -38.228035 44 30 17 
-5.574284 -9.814412 -38.228035 45 31 18 
-5.862436 -9.814412 -38.228035 39 25 12 
-5.982513 -9.853986 -38.382179 42 28 15 
-6.078951 -9.853986 -38.382179 45 31 18 
-6.200391 -9.893881 -38.537575 45 30 17 
-6.829802 -9.824276 -38.266457 45 31 15 
-14.935394 -10.522233 -40.985062 2 2 1 
-14.989965 -10.488363 -40.853134 0 0 0 
-14.964165 -10.399100 -40.505451 0 0 0 
-15.018008 -10.366017 -40.376587 0 0 0 
-14.524121 -9.697574 -37.772938 0 0 0 
-14.619029 -9.697574 -37.772938 0 0 0 
-14.713936 -9.697574 -37.772938 0 0 0 
-14.808844 -9.697574 -37.772938 0 0 0 
-14.903750 -9.697574 -37.772938 0 0 0 
-15.748591 -10.182452 -39.661587 0 0 0 
-15.848244 -10.182452 -39.661587 0 0 0 
18.809532 -20.436481 -78.830482 17 16 17 
18.650078 -20.478882 -78.994034 17 16 16 
18.337467 -20.352207 -78.505409 16 16 16 
18.102890 -20.310331 -78.343872 17 15 16 
17.616070 -19.981419 -77.075150 19 17 18 
17.282473 -19.820925 -76.456070 21 19 20 
16.721031 -19.392576 -74.803780 22 20 21 
16.468372 -19.316675 -74.511002 23 21 22 
16.217684 -19.241365 -74.220512 24 23 23 
15.968942 -19.166643 -73.932274 24 24 24 
15.661538 -19.018923 -73.362473 23 23 23 
15.447446 -18.982347 -73.221390 23 23 23 
5.962731 -10.613786 -40.940990 11 11 9 
5.834768 -10.568331 -40.765656 11 11 9 
5.707896 -10.523263 -40.591816 11 11 9 
5.599936 -10.512056 -40.548588 10 10 8 
5.486369 -10.489714 -40.462406 10 10 8 
5.378988 -10.478579 -40.419453 9 9 7 
5.266250 -10.456378 -40.333817 9 9 7 
5.159443 -10.445313 -40.291134 10 10 8 
5.042202 -10.412258 -40.163631 10 10 8 
4.941288 -10.412258 -40.163631 11 11 9 
4.820035 -10.368509 -39.994877 11 11 9 
4.547578 -9.990709 -38.537575 11 11 9 
4.446249 -9.980607 -38.498608 12 12 10 
4.345125 -9.970526 -38.459721 12 12 10 
4.235657 -9.940404 -38.343529 12 12 10 
4.135152 -9.930403 -38.304951 13 12 10 
4.034849 -9.920423 -38.266457 12 11 9 
3.942664 -9.930403 -38.304951 12 11 9 
3.850293 -9.940404 -38.343529 14 13 11 
3.753952 -9.940404 -38.343529 14 13 11 
3.657611 -9.940404 -38.343529 13 12 10 
65.829811 -219.351578 -846.113831 13 12 10 
62.319019 -214.583054 -827.720032 13 12 10 
60.239311 -214.583054 -827.720032 13 12 10 
53.506836 -197.416412 -761.502441 13 12 10 
47.771763 -182.792984 -705.094849 13 12 9 
42.101837 -167.302048 -645.341064 13 12 8 
37.910187 -156.679703 -604.367004 14 13 9 
35.823051 -154.231583 -594.923767 14 13 10 
34.328262 -154.231583 -594.923767 14 13 11 
32.833469 -154.231583 -594.923767 14 12 12 
31.338678 -154.231583 -594.923767 14 12 13 
-2.230420 -9.990709 -38.537575 46 30 15 
-2.317865 -9.950424 -38.382179 45 29 14 
-2.414303 -9.950424 -38.382179 43 27 12 
-3.820023 -15.139296 -58.397427 42 26 11 
-3.985087 -15.209277 -58.667370 43 27 12 
-4.107180 -15.116112 -58.307999 44 28 13 
-4.253683 -15.116112 -58.307999 45 29 14 
-4.393458 -15.092999 -58.218842 46 30 15 
-4.539737 -15.092999 -58.218842 47 31 16 
-4.686017 -15.092999 -58.218842 48 32 17 
-6.000660 -9.980607 -38.498608 44 31 16 
-6.103562 -9.990709 -38.537575 45 32 17 
-14.989965 -10.591009 -40.853134 0 0 0 
-14.948262 -10.489714 -40.462406 0 0 0 
-14.986223 -10.445313 -40.291134 0 0 0 
-15.087459 -10.445313 -40.291134 0 0 0 
-14.524121 -9.792481 -37.772938 0 0 0 
-14.619029 -9.792481 -37.772938 0 0 0 
-14.713936 -9.792481 -37.772938 0 0 0 
-14.808844 -9.792481 -37.772938 0 0 0 
-14.903750 -9.792481 -37.772938 0 0 0 
-15.748591 -10.282105 -39.661587 0 0 0 
-15.848244 -10.282105 -39.661587 0 0 0 
18.428001 -20.216000 -77.231483 17 17 17 
18.534718 -20.549459 -78.505409 17 17 17 
18.337467 -20.549459 -78.505409 16 16 16 
17.918543 -20.298346 -77.546074 16 16 16 
17.616070 -20.175076 -77.075150 17 16 16 
17.282473 -20.013027 -76.456070 18 17 17 
16.786991 -19.657766 -75.098862 20 18 18 
16.500664 -19.542131 -74.657104 21 19 20 
16.249359 -19.465796 -74.365471 22 21 21 
15.968942 -19.352404 -73.932274 22 22 21 
15.752594 -19.314898 -73.788994 22 22 21 
15.477210 -19.203251 -73.362473 22 22 21 
5.975582 -10.739749 -41.029228 10 10 9 
5.834768 -10.670757 -40.765656 11 11 10 
5.720093 -10.647957 -40.678551 11 11 10 
5.605906 -10.625253 -40.591816 10 10 9 
5.492206 -10.602646 -40.505451 10 10 9 
5.378988 -10.580135 -40.419453 9 9 8 
5.266250 -10.557720 -40.333817 9 9 8 
5.153989 -10.535399 -40.248543 10 10 9 
5.047526 -10.524274 -40.206043 10 10 9 
4.946505 -10.524274 -40.206043 10 10 10 
4.547578 -10.087538 -38.537575 11 11 10 
4.450750 -10.087538 -38.537575 11 11 11 
4.353921 -10.087538 -38.537575 11 11 11 
4.257092 -10.087538 -38.537575 12 11 11 
4.130996 -10.016570 -38.266457 13 11 11 
4.030797 -10.006514 -38.228035 12 10 10 
3.930800 -9.996477 -38.189693 12 11 11 
3.842554 -10.016570 -38.266457 14 12 12 
3.750175 -10.026648 -38.304951 14 12 12 
3.657611 -10.036745 -38.343529 13 11 11 
3.561270 -10.036745 -38.343529 13 12 12 
92.666916 -302.014771 -1153.791626 14 12 12 
68.891663 -231.778778 -885.467957 13 12 12 
62.319019 -216.662766 -827.720032 13 11 12 
60.239311 -216.662766 -827.720032 13 12 11 
53.506836 -199.329742 -761.502441 13 12 10 
47.771763 -184.564575 -705.094849 12 11 9 
46.000156 -184.564575 -705.094849 13 12 9 
38.521645 -160.749802 -614.114868 13 12 10 
35.823051 -155.726364 -594.923767 14 12 11 
34.328262 -155.726364 -594.923767 14 12 13 
32.833469 -155.726364 -594.923767 14 12 13 
-2.221427 -10.046863 -38.382179 48 32 17 
-2.308556 -10.006514 -38.228035 47 31 16 
-2.404607 -10.006514 -38.228035 45 29 14 
-3.779446 -15.123653 -57.777122 43 27 12 
-3.960676 -15.262615 -58.307999 44 28 13 
-4.082174 -15.169692 -57.953003 45 29 14 
-4.240695 -15.216011 -58.129959 47 31 16 
-4.386751 -15.216011 -58.129959 48 32 17 
-4.546690 -15.262615 -58.307999 49 33 18 
-4.751403 -15.451919 -59.031197 50 34 19 
-4.922619 -15.524124 -59.307045 50 34 19 
-14.964165 -10.602646 -40.505451 0 0 0 
-14.986223 -10.546548 -40.291134 0 0 0 
-15.087459 -10.546548 -40.291134 0 0 0 
-14.524121 -9.887388 -37.772938 0 0 0 
-14.619029 -9.887388 -37.772938 0 0 0 
-14.713936 -9.887388 -37.772938 0 0 0 
-14.808844 -9.887388 -37.772938 0 0 0 
-14.903750 -9.887388 -37.772938 0 0 0 
-15.748591 -10.381758 -39.661587 0 0 0 
-15.864770 -10.392583 -39.702942 0 0 0 
18.398138 -20.164637 -76.302849 18 18 18 
18.206421 -20.164637 -76.302849 18 18 18 
18.233952 -20.410049 -77.231483 18 18 18 
18.076567 -20.451532 -77.388458 17 17 17 
17.809727 -20.368732 -77.075150 17 17 17 
17.580481 -20.327583 -76.919441 17 17 16 
17.282473 -20.205128 -76.456070 18 17 15 
16.886915 -19.964592 -75.545876 19 18 16 
16.598301 -19.846458 -75.098862 20 19 17 
16.313082 -19.729713 -74.657104 21 20 18 
16.062510 -19.652645 -74.365471 21 21 19 
15.844714 -19.614336 -74.220512 22 22 20 
15.658230 -19.614336 -74.220512 22 22 20 
6.178539 -11.020979 -41.703312 11 11 11 
5.988488 -10.866257 -41.117844 11 11 11 
5.853570 -10.807899 -40.897018 10 10 10 
5.720093 -10.750165 -40.678551 10 10 10 
5.599936 -10.715819 -40.548588 10 10 10 
5.480545 -10.681692 -40.419453 10 10 10 
5.367592 -10.659061 -40.333817 9 9 9 
5.255116 -10.636526 -40.248543 9 9 9 
5.148547 -10.625295 -40.206043 9 9 9 
5.042202 -10.614086 -40.163631 9 9 9 
4.946505 -10.625295 -40.206043 9 9 9 
4.556858 -10.659061 -40.333817 10 10 10 
4.455516 -10.659061 -40.333817 10 10 10 
4.349567 -10.647782 -40.291134 13 11 12 
4.026754 -10.092431 -38.189693 12 10 11 
3.930800 -10.092431 -38.189693 12 10 11 
3.842554 -10.112718 -38.266457 13 11 12 
3.750175 -10.122891 -38.304951 14 12 13 
3.646594 -10.102564 -38.228035 13 11 12 
3.546982 -10.092431 -38.189693 13 11 12 
95.562752 -314.442322 -1189.847534 14 12 13 
75.957474 -258.003937 -976.285217 14 12 13 
66.666862 -234.003586 -885.467957 13 11 12 
60.239311 -218.742477 -827.720032 13 11 12 
52.457680 -197.297134 -746.571045 13 12 11 
49.609138 -193.502960 -732.213928 14 13 11 
46.000156 -186.336182 -705.094849 13 12 10 
-2.133592 -10.184366 -38.537575 49 34 18 
-2.186166 -9.982296 -37.772938 49 33 18 
-2.281073 -9.982296 -37.772938 49 33 18 
-2.404607 -10.102564 -38.228035 47 31 16 
-3.762319 -15.199629 -57.515289 45 29 14 
-3.924616 -15.268823 -57.777122 46 30 15 
-4.069785 -15.268823 -57.777122 46 30 15 
-4.227785 -15.315303 -57.953003 47 31 16 
-4.400186 -15.409118 -58.307999 49 33 18 
-4.567674 -15.480237 -58.577110 50 34 19 
-4.751403 -15.600239 -59.031197 51 35 20 
-4.907331 -15.624463 -59.122860 51 35 20 
-5.071632 -15.673137 -59.307045 52 36 21 
-5.795479 -10.153536 -38.420910 43 29 13 
-5.892015 -10.153536 -38.420910 44 31 15 
-14.970382 -10.636526 -40.248543 0 0 0 
-15.071509 -10.636526 -40.248543 0 0 0 
-14.524121 -9.982296 -37.772938 0 0 0 
-14.619029 -9.982296 -37.772938 0 0 0 
-14.713936 -9.982296 -37.772938 0 0 0 
-14.808844 -9.982296 -37.772938 0 0 0 
-14.903750 -9.982296 -37.772938 0 0 0 
-15.765013 -10.492340 -39.702942 0 0 0 
-15.881330 -10.503292 -39.744389 0 0 0 
18.361341 -20.315641 -76.150246 18 18 18 
18.170010 -20.315641 -76.150246 18 18 18 
18.123665 -20.479477 -76.764359 19 19 19 
17.967012 -20.520849 -76.919441 18 18 18 
17.773746 -20.520849 -76.919441 18 18 18 
17.545036 -20.479477 -76.764359 19 18 17 
17.282473 -20.397230 -76.456070 20 19 17 
16.886915 -20.154406 -75.545876 21 20 18 
16.598301 -20.035149 -75.098862 22 21 19 
16.377306 -19.995710 -74.951027 23 22 20 
16.093943 -19.878319 -74.511002 23 23 21 
15.875661 -19.839493 -74.365471 23 23 21 
6.205728 -11.174720 -41.886822 11 11 11 
6.040675 -11.065165 -41.476170 11 11 11 
5.872493 -10.945928 -41.029228 10 10 10 
5.732341 -10.875611 -40.765656 9 9 9 
5.588034 -10.794708 -40.462406 9 9 9 
5.468934 -10.760404 -40.333817 9 9 9 
5.356244 -10.737654 -40.248543 10 10 10 
5.249568 -10.726315 -40.206043 10 10 10 
5.148547 -10.726315 -40.206043 9 9 9 
5.047526 -10.726315 -40.206043 9 9 9 
4.566533 -10.783249 -40.419453 9 9 9 
4.455516 -10.760404 -40.333817 10 9 9 
4.354175 -10.760404 -40.333817 13 11 12 
4.243842 -10.737654 -40.248543 11 9 10 
3.930800 -10.188386 -38.189693 12 10 11 
3.746406 -10.208865 -38.266457 13 11 12 
3.642937 -10.188386 -38.189693 12 10 11 
3.539881 -10.167989 -38.113235 13 11 12 
92.666916 -307.812744 -1153.791626 15 13 14 
75.957474 -260.456940 -976.285217 14 12 13 
66.666862 -236.228394 -885.467957 14 12 13 
58.957623 -216.123840 -810.109009 13 11 12 
52.457680 -199.172958 -746.571045 14 12 12 
50.581863 -199.172958 -746.571045 14 13 11 
-2.091259 -10.077203 -37.772938 49 36 20 
-2.186166 -10.077203 -37.772938 48 33 18 
-2.281073 -10.077203 -37.772938 47 31 16 
-3.623281 -15.367353 -57.602303 47 31 16 
-3.768011 -15.367353 -57.602303 47 31 16 
-3.912741 -15.367353 -57.602303 46 30 15 
-4.069785 -15.413992 -57.777122 46 30 15 
-4.234230 -15.484483 -58.041344 46 30 15 
-4.393458 -15.531836 -58.218842 48 32 17 
-4.553663 -15.579479 -58.397427 49 33 18 
-4.700391 -15.579479 -58.397427 50 34 19 
-4.899723 -15.748559 -59.031197 51 35 20 
-5.048043 -15.748559 -59.031197 52 36 21 
-5.196364 -15.748559 -59.031197 51 38 22 
-5.271133 -15.531836 -58.218842 49 36 20 
-5.409142 -15.508123 -58.129959 49 33 18 
-5.546729 -15.484483 -58.041344 49 33 18 
-5.722040 -10.291612 -38.576618 46 30 15 
-5.795479 -10.250072 -38.420910 43 30 14 
-5.886075 -10.239738 -38.382179 44 31 15 
-14.144492 -10.077203 -37.772938 0 0 0 
-14.239399 -10.077203 -37.772938 0 0 0 
-14.334307 -10.077203 -37.772938 0 0 0 
-14.429214 -10.077203 -37.772938 0 0 0 
-14.524121 -10.077203 -37.772938 0 0 0 
-14.619029 -10.077203 -37.772938 0 0 0 
-14.713936 -10.077203 -37.772938 0 0 0 
-14.808844 -10.077203 -37.772938 0 0 0 
-14.903750 -10.077203 -37.772938 0 0 0 
-15.765013 -10.592096 -39.702942 0 0 0 
-15.914555 -10.625336 -39.827534 0 0 0 
18.361341 -20.506975 -76.150246 18 18 18 
18.170010 -20.506975 -76.150246 18 18 18 
18.087198 -20.630758 -76.609901 19 19 19 
17.930788 -20.672354 -76.764359 19 19 19 
17.737913 -20.672354 -76.764359 18 18 18 
17.509735 -20.630758 -76.609901 19 18 17 
17.247839 -20.548071 -76.302849 19 18 16 
16.820168 -20.263809 -75.247276 20 19 17 
16.631104 -20.263809 -75.247276 21 20 18 
16.409609 -20.223841 -75.098862 22 21 19 
16.125500 -20.104877 -74.657104 22 21 19 
15.937919 -20.104877 -74.657104 21 21 19 
6.080417 -11.242859 -41.749039 11 11 11 
5.936463 -11.169376 -41.476170 10 10 10 
5.732341 -10.978038 -40.765656 9 9 9 
5.570276 -10.861745 -40.333817 9 9 9 
5.457372 -10.838781 -40.248543 9 9 9 
5.344944 -10.815915 -40.163631 10 10 10 
5.238504 -10.804518 -40.121311 10 10 10 
5.143116 -10.815915 -40.163631 10 10 10 
5.042202 -10.815915 -40.163631 10 10 10 
4.946505 -10.827336 -40.206043 10 10 10 
4.556858 -10.861745 -40.333817 10 10 10 
4.455516 -10.861745 -40.333817 10 10 10 
4.349567 -10.850251 -40.291134 12 10 11 
4.248333 -10.850251 -40.291134 11 9 10 
3.635643 -10.263751 -38.113235 12 10 11 
3.508275 -10.172111 -37.772938 13 11 12 
101.731445 -330.757660 -1228.229736 15 13 14 
92.666916 -310.711731 -1153.791626 15 13 14 
72.252235 -250.085052 -928.661499 14 12 13 
63.703888 -227.855270 -846.113831 14 12 13 
58.957623 -218.159302 -810.109009 13 11 12 
55.736286 -213.614319 -793.231750 14 12 12 
-1.901444 -10.172111 -37.772938 50 37 21 
-1.996351 -10.172111 -37.772938 50 37 21 
-2.091259 -10.172111 -37.772938 50 36 20 
-2.186166 -10.172111 -37.772938 48 33 18 
-3.785190 -15.582808 -57.864929 46 30 15 
-3.924616 -15.559161 -57.777122 46 30 15 
-4.088397 -15.630316 -58.041344 46 30 15 
-4.234230 -15.630316 -58.041344 47 31 16 
-4.380064 -15.630316 -58.041344 48 32 17 
-4.539737 -15.678115 -58.218842 48 32 17 
-4.686017 -15.678115 -58.218842 49 33 18 
-4.832296 -15.678115 -58.218842 49 33 18 
-4.970974 -15.654179 -58.129959 50 34 19 
-5.117030 -15.654179 -58.129959 50 37 20 
-5.255063 -15.630316 -58.041344 50 37 20 
-5.400896 -15.630316 -58.041344 51 35 20 
-5.538287 -15.606525 -57.953003 51 35 20 
-5.683898 -15.606525 -57.953003 51 35 19 
-5.818966 -10.388538 -38.576618 45 30 14 
-5.892015 -10.346606 -38.420910 45 30 14 
-5.982513 -10.336177 -38.382179 44 30 15 
-6.085085 -10.346606 -38.420910 44 31 15 
-13.290326 -10.172111 -37.772938 11 11 13 
-13.385233 -10.172111 -37.772938 12 12 14 
-13.480141 -10.172111 -37.772938 15 15 17 
-14.049584 -10.172111 -37.772938 0 0 0 
-14.144492 -10.172111 -37.772938 0 0 0 
-14.239399 -10.172111 -37.772938 0 0 0 
-14.334307 -10.172111 -37.772938 0 0 0 
-14.429214 -10.172111 -37.772938 0 0 0 
-14.524121 -10.172111 -37.772938 0 0 0 
-14.619029 -10.172111 -37.772938 0 0 0 
-14.713936 -10.172111 -37.772938 0 0 0 
-14.808844 -10.172111 -37.772938 0 0 0 
-14.903750 -10.172111 -37.772938 0 0 0 
-15.748591 -10.680716 -39.661587 0 0 0 
-15.914555 -10.725405 -39.827534 0 0 0 
18.361341 -20.698307 -76.150246 18 18 18 
18.170010 -20.698307 -76.150246 19 18 19 
18.087198 -20.823248 -76.609901 19 18 19 
17.894711 -20.823248 -76.609901 19 18 19 
17.702223 -20.823248 -76.609901 18 18 18 
17.439554 -20.739788 -76.302849 18 17 16 
17.247839 -20.739788 -76.302849 19 18 16 
16.820168 -20.452873 -75.247276 20 19 17 
16.631104 -20.452873 -75.247276 21 20 18 
16.409609 -20.412533 -75.098862 22 21 19 
16.220917 -20.412533 -75.098862 23 22 20 
16.032225 -20.412533 -75.098862 22 22 20 
5.975519 -11.347756 -41.749039 11 11 11 
5.756997 -11.128122 -40.940990 10 10 10 
5.558499 -10.939909 -40.248543 10 10 10 
5.422976 -10.870960 -39.994877 9 9 9 
5.311328 -10.848169 -39.911030 9 9 9 
5.221996 -10.870960 -39.994877 9 9 9 
5.137696 -10.905326 -40.121311 9 9 9 
5.047526 -10.928357 -40.206043 9 9 9 
4.946505 -10.928357 -40.206043 9 9 9 
4.556858 -10.963087 -40.333817 9 9 9 
4.450801 -10.951486 -40.291134 9 9 9 
4.344969 -10.939909 -40.248543 10 9 10 
4.243842 -10.939909 -40.248543 10 10 10 
3.635643 -10.359513 -38.113235 12 11 12 
129.973648 -413.966156 -1523.004883 14 12 13 
95.565903 -313.610718 -1153.791626 15 13 14 
80.473900 -272.346161 -1001.976929 16 14 15 
67.325943 -235.208038 -865.343689 15 13 14 
62.319019 -224.981598 -827.720032 15 13 14 
61.577961 -229.981201 -846.113831 14 12 13 
-1.749132 -11.800632 -43.415192 56 39 21 
-1.843502 -11.707188 -43.071407 55 38 20 
-1.947316 -11.680760 -42.974178 55 38 21 
-1.806537 -10.267017 -37.772938 52 37 21 
-1.901444 -10.267017 -37.772938 51 37 21 
-1.996351 -10.267017 -37.772938 52 37 21 
-2.091259 -10.267017 -37.772938 52 36 21 
-2.186166 -10.267017 -37.772938 49 33 18 
-3.814173 -15.848628 -58.307999 46 30 15 
-3.942564 -15.776149 -58.041344 45 29 14 
-4.088397 -15.776149 -58.041344 46 30 15 
-4.234230 -15.776149 -58.041344 48 32 17 
-4.380064 -15.776149 -58.041344 49 33 18 
-4.525897 -15.776149 -58.041344 49 33 18 
-4.650463 -15.704330 -57.777122 49 33 18 
-4.802920 -15.728197 -57.864929 50 34 19 
-4.948310 -15.728197 -57.864929 51 35 20 
-5.101453 -15.752137 -57.953003 48 35 18 
-5.255063 -15.776149 -58.041344 49 36 19 
-5.400896 -15.776149 -58.041344 52 36 20 
-5.546729 -15.776149 -58.041344 53 37 21 
-5.886075 -10.432614 -38.382179 47 31 16 
-5.976489 -10.422109 -38.343529 45 31 16 
-6.072829 -10.422109 -38.343529 45 32 16 
-6.169170 -10.422109 -38.343529 46 33 17 
-6.240374 -10.380295 -38.189693 46 33 16 
-6.267182 -10.267017 -37.772938 50 37 18 
-13.195418 -10.267017 -37.772938 12 12 14 
-13.290326 -10.267017 -37.772938 13 13 15 
-13.385233 -10.267017 -37.772938 12 12 14 
-13.480141 -10.267017 -37.772938 12 12 14 
-14.049584 -10.267017 -37.772938 0 0 0 
-14.144492 -10.267017 -37.772938 0 0 0 
-14.239399 -10.267017 -37.772938 0 0 0 
-14.334307 -10.267017 -37.772938 0 0 0 
-14.429214 -10.267017 -37.772938 0 0 0 
-14.524121 -10.267017 -37.772938 0 0 0 
-14.619029 -10.267017 -37.772938 0 0 0 
-14.713936 -10.267017 -37.772938 0 0 0 
-14.808844 -10.267017 -37.772938 0 0 0 
-14.903750 -10.267017 -37.772938 0 0 0 
-15.748591 -10.780369 -39.661587 0 0 0 
-15.848244 -10.780369 -39.661587 0 0 0 
18.361341 -20.889641 -76.150246 19 17 20 
18.170010 -20.889641 -76.150246 18 16 19 
18.087198 -21.015736 -76.609901 18 16 19 
17.894711 -21.015736 -76.609901 18 16 19 
17.631271 -20.931503 -76.302849 17 15 18 
17.439554 -20.931503 -76.302849 17 16 16 
17.213343 -20.889641 -76.150246 18 17 15 
16.820168 -20.641937 -75.247276 19 18 16 
16.631104 -20.641937 -75.247276 21 20 18 
16.409609 -20.601223 -75.098862 23 22 20 
16.220917 -20.601223 -75.098862 23 22 20 
5.707896 -11.135203 -40.591816 10 10 10 
5.477437 -10.880021 -39.661587 10 10 10 
5.377785 -10.880021 -39.661587 9 9 9 
5.267159 -10.857402 -39.579128 8 8 8 
5.178480 -10.880021 -39.661587 8 8 8 
5.100077 -10.925545 -39.827534 8 8 8 
4.989569 -10.902736 -39.744389 8 8 8 
4.889708 -10.902736 -39.744389 8 8 8 
4.750180 -10.812444 -39.415241 8 8 8 
4.584701 -10.657980 -38.852165 8 8 8 
4.658200 -11.064428 -40.333817 8 8 8 
4.552036 -11.052720 -40.291134 7 7 7 
4.441402 -11.029378 -40.206043 7 7 7 
4.326674 -10.994548 -40.079075 9 9 9 
4.212670 -10.959937 -39.952908 10 10 10 
3.635643 -10.455276 -38.113235 11 11 11 
3.554112 -10.497307 -38.266457 12 10 11 
137.626984 -417.792816 -1523.004883 12 10 11 
133.800323 -417.792816 -1523.004883 13 11 12 
104.817467 -336.929688 -1228.229736 13 11 12 
82.991440 -274.863708 -1001.976929 14 12 13 
67.955734 -232.107117 -846.113831 14 12 13 
64.398727 -227.061310 -827.720032 14 12 13 
62.319019 -227.061310 -827.720032 13 11 12 
61.577961 -232.107117 -846.113831 12 10 11 
-1.735282 -11.815408 -43.071407 56 39 21 
-1.837267 -11.775446 -42.925732 56 38 20 
-1.732251 -10.486768 -38.228035 55 38 20 
-1.806537 -10.361925 -37.772938 53 37 21 
-1.901444 -10.361925 -37.772938 52 37 22 
-1.996351 -10.361925 -37.772938 52 37 22 
-2.091259 -10.361925 -37.772938 52 36 21 
-2.186166 -10.361925 -37.772938 49 33 18 
-3.960676 -15.995131 -58.307999 43 28 13 
-4.094639 -15.946291 -58.129959 45 30 15 
-4.234230 -15.921983 -58.041344 46 32 16 
-4.360124 -15.849500 -57.777122 48 33 18 
-4.498467 -15.825485 -57.689579 48 34 18 
-4.608503 -15.706497 -57.255825 49 34 19 
-4.738113 -15.659401 -57.084141 50 35 20 
-4.933315 -15.825485 -57.689579 51 36 21 
-5.093700 -15.873588 -57.864929 47 34 17 
-5.255063 -15.921983 -58.041344 48 35 18 
-5.400896 -15.921983 -58.041344 52 36 20 
-5.546729 -15.921983 -58.041344 53 37 21 
-5.886075 -10.529053 -38.382179 47 33 17 
-5.976489 -10.518450 -38.343529 47 34 17 
-6.072829 -10.518450 -38.343529 47 34 17 
-6.144420 -10.476249 -38.189693 46 33 16 
-6.172275 -10.361925 -37.772938 46 33 16 
-6.267182 -10.361925 -37.772938 50 37 18 
-6.362089 -10.361925 -37.772938 50 37 18 
-13.195418 -10.361925 -37.772938 11 11 13 
-13.290326 -10.361925 -37.772938 11 11 13 
-13.385233 -10.361925 -37.772938 11 11 13 
-13.480141 -10.361925 -37.772938 12 12 14 
-13.575047 -10.361925 -37.772938 12 12 14 
-13.954678 -10.361925 -37.772938 0 0 0 
-14.049584 -10.361925 -37.772938 0 0 0 
-14.144492 -10.361925 -37.772938 0 0 0 
-14.239399 -10.361925 -37.772938 0 0 0 
-14.334307 -10.361925 -37.772938 0 0 0 
-14.429214 -10.361925 -37.772938 0 0 0 
-14.524121 -10.361925 -37.772938 0 0 0 
-14.619029 -10.361925 -37.772938 0 0 0 
-14.713936 -10.361925 -37.772938 0 0 0 
-14.808844 -10.361925 -37.772938 0 0 0 
-14.903750 -10.361925 -37.772938 0 0 0 
-15.715850 -10.857402 -39.579128 0 0 0 
-15.815295 -10.857402 -39.579128 0 0 0 
18.324694 -21.038897 -75.998245 15 13 17 
18.061640 -20.955242 -75.696068 15 13 17 
18.014706 -21.123220 -76.302849 16 14 18 
17.822989 -21.123220 -76.302849 17 15 19 
17.560888 -21.038897 -75.998245 18 16 19 
17.404676 -21.080975 -76.150246 18 16 18 
17.178986 -21.038897 -75.998245 17 16 15 
16.820168 -20.831001 -75.247276 18 17 15 
16.598301 -20.789915 -75.098862 19 18 16 
16.409609 -20.789915 -75.098862 20 19 17 
16.220917 -20.789915 -75.098862 20 19 17 
5.577090 -10.979674 -39.661587 10 10 10 
5.409815 -10.844123 -39.171936 9 9 9 
5.311392 -10.844123 -39.171936 9 9 9 
5.239924 -10.900193 -39.374481 8 8 8 
5.156992 -10.934115 -39.497017 8 8 8 
5.078827 -10.979674 -39.661587 7 7 7 
4.963663 -10.945470 -39.538029 7 7 7 
4.849214 -10.911477 -39.415241 8 8 8 
4.653828 -10.690149 -38.615742 8 8 8 
4.556802 -10.690149 -38.615742 8 8 8 
4.496258 -10.777595 -38.931618 8 8 8 
4.537631 -11.118657 -40.163631 7 7 7 
4.427376 -11.095249 -40.079075 7 7 7 
4.313055 -11.060322 -39.952908 10 10 10 
4.164600 -10.934115 -39.497017 10 10 10 
4.065361 -10.934115 -39.497017 10 10 10 
3.925401 -10.821856 -39.091503 10 10 10 
3.761528 -10.636213 -38.420910 10 10 10 
3.661298 -10.625491 -38.382179 10 10 10 
3.554112 -10.593454 -38.266457 9 9 9 
118.643951 -363.465057 -1312.935303 10 9 9 
101.363876 -319.408691 -1153.791626 11 9 10 
85.508980 -277.381226 -1001.976929 12 10 11 
70.081657 -234.233047 -846.113831 13 11 12 
65.064003 -224.265686 -810.109009 13 11 12 
64.398727 -229.141022 -827.720032 13 11 12 
62.319019 -229.141022 -827.720032 13 11 12 
-1.729413 -11.883300 -42.925732 59 40 23 
-1.833133 -11.856565 -42.829159 57 38 21 
-1.925583 -11.763936 -42.494556 55 37 20 
-1.806537 -10.456833 -37.772938 54 37 21 
-1.901444 -10.456833 -37.772938 53 37 22 
-1.996351 -10.456833 -37.772938 53 37 22 
-2.091259 -10.456833 -37.772938 52 36 21 
-2.186166 -10.456833 -37.772938 49 33 18 
-3.966751 -16.166391 -58.397427 43 29 14 
-4.094639 -16.092346 -58.129959 44 31 15 
-4.234230 -16.067816 -58.041344 45 32 16 
-4.353518 -15.970435 -57.689579 46 33 17 
-4.471368 -15.874228 -57.342052 46 33 17 
-4.594685 -15.802829 -57.084141 47 34 18 
-4.731020 -15.779172 -56.998688 48 35 19 
-4.874234 -15.779172 -56.998688 49 36 20 
-5.078265 -15.970435 -57.689579 48 35 18 
-5.231140 -15.994669 -57.777122 49 36 19 
-5.392675 -16.043360 -57.953003 52 36 20 
-5.546729 -16.067816 -58.041344 53 37 21 
-5.783806 -10.614791 -38.343529 48 35 18 
-5.880147 -10.614791 -38.343529 47 34 17 
-5.976489 -10.614791 -38.343529 47 34 17 
-6.072829 -10.614791 -38.343529 46 33 16 
-6.144420 -10.572204 -38.189693 46 33 16 
-6.172275 -10.456833 -37.772938 46 33 16 
-6.267182 -10.456833 -37.772938 49 36 17 
-6.362089 -10.456833 -37.772938 49 36 17 
-13.195418 -10.456833 -37.772938 11 11 12 
-13.290326 -10.456833 -37.772938 11 11 13 
-13.385233 -10.456833 -37.772938 11 11 13 
-13.480141 -10.456833 -37.772938 12 12 14 
-13.575047 -10.456833 -37.772938 13 13 15 
-13.669955 -10.456833 -37.772938 15 15 17 
-13.764863 -10.456833 -37.772938 12 12 14 
-13.859770 -10.456833 -37.772938 0 0 0 
-13.954678 -10.456833 -37.772938 0 0 0 
-14.049584 -10.456833 -37.772938 0 0 0 
-14.144492 -10.456833 -37.772938 0 0 0 
-14.239399 -10.456833 -37.772938 0 0 0 
-14.334307 -10.456833 -37.772938 0 0 0 
-14.429214 -10.456833 -37.772938 0 0 0 
-14.524121 -10.456833 -37.772938 0 0 0 
-14.619029 -10.456833 -37.772938 0 0 0 
-14.713936 -10.456833 -37.772938 0 0 0 
-14.808844 -10.456833 -37.772938 0 0 0 
-14.903750 -10.456833 -37.772938 0 0 0 
17.930998 -20.773737 -74.365471 17 15 20 
17.744150 -20.773737 -74.365471 16 14 19 
17.765490 -21.020067 -75.247276 16 14 19 
17.681255 -21.145435 -75.696068 16 14 19 
17.525906 -21.187557 -75.846855 16 14 18 
17.335335 -21.187557 -75.846855 16 14 16 
17.144764 -21.187557 -75.846855 16 14 14 
16.786991 -20.978607 -75.098862 16 15 13 
16.598301 -20.978607 -75.098862 17 16 14 
16.377306 -20.937311 -74.951027 19 18 16 
16.188986 -20.937311 -74.951027 21 20 18 
5.485662 -10.897698 -39.011395 9 9 9 
5.376626 -10.875413 -38.931618 9 9 9 
5.278807 -10.875413 -38.931618 9 9 9 
5.191606 -10.897698 -39.011395 8 8 8 
5.109291 -10.931299 -39.131680 8 8 8 
4.958514 -11.033355 -39.497017 8 8 8 
4.824244 -10.953815 -39.212280 8 8 8 
4.649112 -10.776245 -38.576618 9 9 9 
4.552186 -10.776245 -38.576618 9 9 9 
4.496258 -10.875413 -38.931618 8 8 8 
4.528078 -11.195951 -40.079075 8 8 8 
4.422721 -11.184178 -40.036934 8 8 8 
4.313055 -11.160707 -39.952908 9 9 9 
4.164600 -11.033355 -39.497017 10 10 10 
4.023622 -10.920075 -39.091503 10 10 10 
3.858064 -10.732748 -38.420910 10 10 10 
3.757736 -10.721930 -38.382179 10 10 10 
3.661298 -10.721930 -38.382179 10 10 10 
118.643951 -366.763916 -1312.935303 10 10 10 
85.769432 -272.721893 -976.285217 12 10 11 
72.207588 -236.358963 -846.113831 12 10 11 
67.099464 -226.301147 -810.109009 13 11 12 
62.408329 -217.064362 -777.043335 13 11 12 
61.715450 -221.586533 -793.231750 14 12 13 
-1.625223 -12.018252 -43.022736 61 43 24 
-1.725522 -11.964177 -42.829159 59 40 23 
-1.833133 -11.964177 -42.829159 57 38 21 
-1.806537 -10.551740 -37.772938 54 36 21 
-1.901444 -10.551740 -37.772938 53 36 22 
-1.996351 -10.551740 -37.772938 52 36 21 
-2.091259 -10.551740 -37.772938 51 35 20 
-2.186166 -10.551740 -37.772938 50 34 19 
-3.948583 -16.238403 -58.129959 44 30 14 
-4.082174 -16.188971 -57.953003 43 30 14 
-4.208568 -16.115385 -57.689579 44 31 15 
-4.333818 -16.042463 -57.428539 44 31 15 
-4.451257 -15.946258 -57.084141 45 32 16 
-4.580949 -15.898585 -56.913486 46 33 17 
-4.709868 -15.851198 -56.743851 46 33 17 
-4.852441 -15.851198 -56.743851 46 34 18 
-5.009947 -15.898585 -56.913486 48 35 18 
-5.215312 -16.091003 -57.602303 49 36 19 
-5.392675 -16.188971 -57.953003 51 37 20 
-5.505873 -10.732748 -38.420910 48 35 19 
-5.596761 -10.721930 -38.382179 50 37 21 
-5.687466 -10.711132 -38.343529 50 36 20 
-5.783806 -10.711132 -38.343529 48 35 19 
-5.880147 -10.711132 -38.343529 47 34 17 
-5.976489 -10.711132 -38.343529 45 32 16 
-6.072829 -10.711132 -38.343529 45 32 16 
-6.138263 -10.657469 -38.151424 46 33 17 
-6.172275 -10.551740 -37.772938 46 33 16 
-6.267182 -10.551740 -37.772938 47 34 15 
-6.362089 -10.551740 -37.772938 48 35 16 
