# .PCD v.7 - Point Cloud Data file format
VERSION .7
FIELDS x y z rgb
SIZE 4 4 4 4
TYPE F F F F
COUNT 1 1 1 1
WIDTH 1062
HEIGHT 1
VIEWPOINT 0 0 0 1 0 0 0
POINTS 1062
DATA ascii
-2.5264573 19.404942 -79.299713 8.108877e-39
19.138435 1.739753 -58.57711 2.0468879e-38
-32.106926 18.491131 -290.64978 1.6036643e-38
-2.1168237 -10.696718 -59.474335 9.8559136e-39
-1.8308659 -10.786936 -59.479118 9.761553e-39
19.581306 7.8336248 -65.197128 4.7016058e-39
80.725243 39.05566 -746.57104 1.3718416e-38
-14.546811 -13.071393 -63.927456 2.7651472e-39
34.873718 21.402414 -271.96515 1.8051249e-38
-41.685005 105.79096 -692.27496 4.5143334e-39
-21.185394 -83.292397 -846.11383 8.8381632e-39
-129.97365 -413.96616 -1523.0049 1.29002e-39
34.382538 12.005907 -268.13467 1.9431668e-38
-605.61157 -439.90198 -3172.927 5.438096e-39
89.18351 12.603664 -1312.9353 1.1232008e-38
20.903774 10.89346 -76.302849 1.3083833e-38
92.482353 12.603664 -1312.9353 1.141676e-38
81.307663 -17.125717 -233.58971 1.9821716e-38
1287.4529 -401.62039 -3461.3748 0
-21.548536 -69.712219 -614.11487 7.4591832e-39
20.236383 16.187595 -83.865906 1.5939019e-38
21.762512 -13.946748 -63.670773 1.383289e-39
-2.4904051 11.527469 -41.126904 1.7704797e-38
104.12994 -0.74609399 -1655.4401 1.3165959e-38
4.8842583 11.646792 -41.419189 6.6358979e-39
-9.7640209 0.28652 -138.9603 9.7622817e-39
5.1575356 11.467446 -41.563168 5.5291972e-39
-30.086494 8.6991291 -352.54742 1.0957229e-38
-86.252228 43.914764 -928.6615 9.8494382e-39
31.713621 13.393692 -233.58971 1.980261e-38
6.6722474 11.522202 -41.660866 7.6482506e-39
-29.200691 8.6991291 -352.54742 1.0404058e-38
32.300533 13.980604 -233.58971 1.9618939e-38
-27.429089 8.6991291 -352.54742 9.4846186e-39
112.44877 -0.74609399 -1655.4401 1.2059971e-38
26.922379 28.093349 -97.37883 2.1207873e-38
-31.838516 -1.709497 -576.89581 1.4734372e-38
-105.56187 -151.9557 -2003.9539 8.4747827e-39
27.411722 28.338022 -97.37883 2.1208596e-38
87.102448 -14.827941 -244.0713 1.991427e-38
-24.686853 17.777498 -209.20396 1.8899388e-38
-23.635572 17.777498 -209.20396 1.8529166e-38
-565.75049 -439.90198 -3172.927 4.6076235e-39
-28.409143 22.625906 -266.25961 9.9538742e-39
7.5132809 2.0987654 -38.533325 7.8294147e-39
-8.6217175 -0.57432663 -42.733131 1.8527376e-38
8.6827803 2.9722829 -38.382179 3.9629673e-39
-7.7910004 -0.60659236 -42.496311 1.8342624e-38
10.311833 2.776608 -38.343529 8.5691335e-39
32.607208 10.356284 -237.96951 2.0631292e-38
13.840773 2.467628 -38.783615 1.4385043e-38
144.55299 -45.9804 -405.0545 1.9175986e-38
33.504082 10.057326 -237.96951 2.0724208e-38
14.026179 2.4658546 -38.757259 0
35.527245 24.529984 -297.46188 1.1974619e-38
-20.367893 -19.215994 -86.731483 2.304525e-39
23.414858 -4.4127498 -81.010902 1.0135743e-38
-19.868351 -19.041451 -86.929504 2.3045264e-39
-4.1238265 -9.3115692 -39.650105 1.381854e-39
-8.5330496 -3.1148345 -46.756954 1.7513219e-38
-12.322135 2.5217161 -53.326504 1.8806476e-38
-46.352062 -27.908964 -194.26083 3.5030724e-39
5.9014139 -9.0647736 -39.785915 5.5255875e-39
6.0447807 -9.1131487 -39.634361 5.1564462e-39
7.5546589 4.4453173 -99.283409 1.1973535e-38
146.10733 -48.532158 -409.40991 1.9175986e-38
-56.62978 8.5402384 -705.09485 9.3920642e-39
-27.225784 -25.538973 -240.9818 4.7005352e-39
-25.674328 11.928601 -217.57213 1.8896515e-38
24.515442 -7.6706734 -85.562508 1.1428643e-38
0.93993002 2.9155099 -53.177547 9.670086e-39
15.809576 -9.6804218 -39.647858 0
1.073542 2.781898 -53.177547 1.0407291e-38
68.616455 36.386196 -634.58539 1.3074127e-38
-11.383996 27.636307 -177.92113 4.883116e-39
-17.896046 20.852827 -74.220512 1.8442363e-38
1.625223 -12.018252 -43.022736 5.6174244e-39
103.84999 -27.572285 -295.15598 1.9453289e-38
24.322657 9.7341728 -302.1835 1.2890453e-38
105.33319 -27.572285 -295.15598 1.9453289e-38
18.461721 11.512451 -56.519848 1.9640186e-38
146.65559 -51.139393 -413.86002 1.7240231e-38
19.346317 11.496454 -56.66658 2.1024204e-38
0.57520378 -6.1807113 -50.534939 1.058844e-38
-5.349987 -0.098325998 -57.602303 1.6479616e-38
1.1861737 -6.2674532 -50.379475 1.0404046e-38
4.6879301 -14.090819 -143.13956 1.0771033e-38
5.8515682 8.0209045 -60.436703 6.539029e-39
6.0793462 8.0209045 -60.436703 6.8156173e-39
-8.8074865 33.81797 -184.83069 8.1074351e-39
3.5550408 14.211856 -67.550392 1.1605464e-38
33.732231 14.579895 -536.26935 1.4087559e-38
4.6183848 14.280332 -67.485863 1.1236682e-38
5.5377998 5.4494605 -64.289383 5.1589812e-39
-485.43637 -383.98645 -2928.8557 3.5949107e-39
-2.169872 -26.255346 -144.77232 7.6439332e-39
9.4486876 5.5061126 -64.798035 1.5472293e-38
10.913547 5.1421809 -64.316086 4.7019645e-39
11.216767 5.2697263 -64.294395 5.0685848e-39
-478.07739 -383.98645 -2928.8557 3.779302e-39
22.748428 20.202301 -74.80397 2.1116755e-38
23.079052 20.225164 -74.657104 2.1300425e-38
33.947899 19.554407 -270.03632 1.7682471e-38
2.6048174 -14.620797 -158.64635 1.2521667e-38
23.870375 23.394382 -85.562073 1.2536776e-38
24.353516 23.806377 -85.498131 2.0193714e-38
-152.90041 -163.49124 -1903.7561 4.5143489e-39
-1.191918 -26.601498 -159.97951 5.3404844e-39
120.59215 20.623684 -1410.1897 1.6206619e-38
-8.6853447 1.277994 -133.12981 1.2711103e-38
21.723745 14.486476 -82.315147 1.5940464e-38
22.028221 14.400923 -82.682236 1.5848627e-38
-32.117393 16.700041 -304.60098 1.0589168e-38
21.467648 -0.942002 -72.386162 1.4005076e-38
-7.195406 9.2281265 -40.072067 1.8165779e-38
57.494915 18.64303 -1087.8606 1.454782e-38
60.019714 35.440372 -568.2854 1.040549e-38
3.9414663 9.6933889 -40.536415 9.1205024e-39
61.447575 35.440372 -568.2854 1.1417484e-38
89.756683 15.586931 -793.23175 1.8048017e-38
4.1176138 9.7264194 -40.55759 8.2911033e-39
31.520245 11.562024 -232.16537 1.9894446e-38
5.6915398 9.6929016 -40.429646 1.1422513e-38
6.7454529 9.7069874 -40.249718 1.0686386e-38
22.629225 -3.7728639 -76.302849 1.8714274e-38
6.229219 0.28667942 -37.772938 1.150896e-38
-4.6424551 12.6128 -51.480576 1.7888112e-38
-23.824337 -98.800682 -1057.6423 9.6668462e-39
10.905408 6.4319801 -44.273399 1.3638803e-38
23.63735 -6.4311075 -80.385071 1.8069269e-38
24.024578 -6.898365 -80.327263 1.9177428e-38
-5.2112713 -11.113027 -38.611427 6.4536941e-40
-4.5813904 -11.317832 -38.550591 0
7.7048645 -2.8890178 -41.795769 9.3023783e-39
1235.2711 -384.22644 -3461.3748 1.9360377e-38
-10.121282 -16.074436 -288.44791 1.3167045e-38
-16.18257 -88.770264 -718.39856 7.0904035e-39
5.7636294 -11.186168 -38.398335 5.5245071e-40
8.6118069 3.052063 -48.939747 8.5680587e-39
-14.377539 -88.770264 -718.39856 7.0904035e-39
6.2472563 -11.160801 -38.233429 0
41.399284 12.773324 -343.01913 1.9060376e-38
-2.2835684 15.44252 -62.830235 9.0311948e-39
-38.429634 -97.816025 -392.52704 1.2910919e-39
-152.73424 -853.1488 -3807.5122 1.6573535e-39
-37.443378 -97.816025 -392.52704 1.2910919e-39
-3.2627621 0.89140201 -52.015194 1.4092239e-38
-48.53981 8.8387222 -604.367 9.5760954e-39
-36.457127 -97.816025 -392.52704 1.2910919e-39
-2.8706861 0.89140201 -52.015194 1.5655249e-38
-35.470871 -97.816025 -392.52704 1.3832876e-39
-13.530841 -2.845341 -56.116646 1.815823e-38
-12.70494 -2.1476076 -56.310448 1.825043e-38
17.700359 9.5142136 -55.021854 1.1893592e-38
15.792193 -5.7768645 -45.369724 4.6097843e-39
8.6292 0.108885 -52.808769 1.0127104e-38
16.053932 -5.7339005 -45.709484 1.0417752e-38
-12.432241 31.498436 -183.49564 6.8188585e-39
-11.597396 31.308105 -183.05348 6.081292e-39
-1.394644 -25.386602 -139.98207 6.8156131e-39
20.264915 15.232033 -62.830238 2.1117114e-38
-3.391113 3.8932259 -63.521095 1.4826925e-38
-10.190842 -5.5700464 -60.814404 1.7235558e-38
-9.6191006 -5.740757 -60.638103 1.7511424e-38
7.941709 -2.009619 -56.407589 6.1698919e-39
8.2022257 -2.062974 -56.575218 6.3542832e-39
-15.266421 -9.7278805 -260.78851 1.0590602e-38
-13.082253 -9.9462967 -260.78851 1.2802935e-38
5.6561832 3.9509668 -63.353653 7.8283286e-39
730.26221 -247.62231 -2003.9539 0
879.14465 -317.96814 -2379.6951 0
-6.8843393 0.48185667 -67.991287 1.5657428e-38
735.29724 -247.62231 -2003.9539 0
72.575409 5.2779708 -1153.7916 1.2797177e-38
-10.233038 34.323143 -194.26083 6.6330267e-39
740.33234 -247.62231 -2003.9539 0
-13.928302 -12.40967 -264.41058 1.1881343e-38
-294.83356 -204.00655 -1586.4635 4.5150635e-39
40.280407 10.314711 -312.09116 2.0259634e-38
41.587326 10.053326 -312.09116 2.0444387e-38
-1.1236839 -8.821393 -64.207809 6.8145355e-39
42.371475 10.053326 -312.09116 2.0445466e-38
-0.23745237 -8.6212559 -64.520782 7.4584671e-39
2.8230104 6.2563839 -74.730438 3.041011e-39
0.2052701 -8.3983946 -64.627136 8.8399624e-39
3.4987516 6.4965091 -74.558205 4.4214218e-39
20.480904 9.8527117 -70.249306 4.9771081e-39
4.3190722 6.3604622 -74.628166 5.1578994e-39
43.764957 9.8587856 -362.62021 1.9338394e-38
-9.0583544 -67.087158 -604.367 8.6552096e-39
12.486961 0.47767568 -67.429565 1.5010956e-38
-7.5398369 -67.087158 -604.367 8.4700967e-39
60.939175 15.342533 -692.27496 1.3074485e-38
95.690178 -25.225706 -270.03632 1.9545125e-38
-45.853504 118.28339 -761.50244 4.7909189e-39
92.246483 6.4508538 -1410.1897 1.2428754e-38
-206.26357 79.658188 -2003.9539 1.1504293e-38
31.526867 12.500031 -227.99475 1.9987722e-38
32.386147 12.500031 -227.99475 2.0079919e-38
22.342777 12.814207 -81.184006 1.5113221e-38
-122.95245 -83.611763 -543.9303 5.3444627e-39
-121.58578 -83.611763 -543.9303 5.0685946e-39
21.816418 -2.1053414 -71.739395 2.0466355e-38
55.429661 13.620691 -500.98846 1.6853065e-38
22.37195 -2.6229944 -71.714287 2.0007183e-38
-3.0885296 -14.869488 -72.455627 1.6566375e-39
-2.5756176 -14.799222 -72.111977 8.1056414e-39
38.01569 8.8387222 -604.367 1.3257795e-38
-0.78181005 -14.097677 -72.386162 7.7343253e-39
39.53421 8.8387222 -604.367 1.2706059e-38
23.812656 18.065035 -88.960564 1.409619e-38
1.519171 7.6500702 -39.033234 1.5476604e-38
8.8200359 35.152725 -159.31013 9.0257802e-39
-42.884716 8.3654623 -488.14261 1.2890459e-38
-34.448231 -6.554534 -624.18231 1.4182996e-38
22.814285 -5.1659641 -75.647202 1.9821351e-38
23.292515 -5.1454506 -75.346817 1.991355e-38
-145.61943 -160.26151 -1813.1011 4.237762e-39
-48.587711 11.059425 -645.34106 8.9328825e-39
-64.398727 -229.14102 -827.72003 1.1978243e-39
-39.791851 -195.67683 -793.23175 1.3818554e-39
-13.064592 7.4630737 -54.182961 1.8991948e-38
23.439907 -8.5140839 -79.710739 9.5883455e-39
-12.862359 7.4446874 -54.125443 1.8991948e-38
-62.319019 -229.14102 -827.72003 1.1978243e-39
-37.798798 -195.67683 -793.23175 1.4733308e-39
24.173035 -8.224062 -79.489471 1.9452928e-38
34.572651 26.437866 -302.1835 3.7756908e-39
-1.1051024 1.3255954 -47.298431 1.7498078e-38
-0.90762508 1.5251291 -47.337799 1.6577202e-38
-42.289757 -158.68013 -624.18231 1.2903717e-39
-8.0978413 -7.0117831 -44.170677 3.2254079e-39
-25.272072 16.945429 -218.82254 1.788416e-38
-7.9868588 -7.0117831 -44.170677 3.0410167e-39
98.76004 23.380396 -1189.8475 1.1783387e-38
-5.0238199 -1.8281569 -51.314182 1.8158237e-38
-4.728467 -1.7040306 -51.46883 1.7507826e-38
8.9275932 7.3341131 -54.916069 6.8148928e-39
9.115901 7.2227087 -54.942455 6.4471921e-39
8.7280245 5.5465813 -154.1503 1.4089361e-38
9.5412807 5.3746839 -154.77692 1.3904249e-38
-13.237614 -4.462162 -55.624859 1.7605415e-38
-12.89015 -4.5477424 -55.382492 1.7605058e-38
52.23214 15.684432 -576.89581 1.2797899e-38
14.887749 -7.7107739 -44.042953 2.304895e-39
0.152527 4.1009321 -58.66737 9.4860549e-39
18.605297 7.2827773 -54.707062 2.0747619e-38
-15.387082 -8.4619198 -255.53773 1.0497327e-38
-7.5848365 -4.7983193 -55.64254 1.6221406e-38
9.5901022 -1.3506379 -51.558064 7.0900447e-39
19.100529 7.4129777 -54.209198 2.0839812e-38
-66.666862 -236.22839 -885.46796 1.29002e-39
-6.7495203 -4.8361902 -55.235821 5.8976476e-39
10.3176 -1.6124353 -51.627876 1.2616381e-38
-25.585594 -91.418488 -928.6615 8.7466864e-39
-28.031448 -25.383896 -199.34619 3.3186797e-39
-27.530577 -25.133459 -199.34619 3.0420914e-39
18.95381 13.837092 -61.312595 1.13404e-38
9.4131575 4.8834147 -58.505184 5.8933064e-39
19.107862 13.991145 -61.312595 2.0653611e-38
-9.0942087 -7.1865444 -59.369499 5.5288595e-39
-8.9450378 -7.1865444 -59.369499 5.0682401e-39
18.806351 4.4175987 -58.308273 2.0193731e-38
19.441938 4.3635249 -58.457623 2.0470678e-38
-20.173258 -90.477386 -732.21393 7.3673491e-39
20.021511 4.2418022 -58.57711 2.0470678e-38
-33.847305 -38.046783 -396.61588 3.8711375e-39
-18.333515 -90.477386 -732.21393 7.1825991e-39
-12.342464 -11.505618 -259.01443 1.2801142e-38
-67.955734 -232.10712 -846.11383 1.29002e-39
33.50705 24.477413 -271.96515 1.0314381e-38
-25.875088 -38.046783 -396.61588 3.2243219e-39
-14.29788 -10.906132 -63.433548 3.8707703e-39
75.071754 15.049716 -1029.0574 1.1233087e-38
-61.577961 -232.10712 -846.11383 1.1056287e-39
-13.684199 -10.916323 -63.72419 4.0548056e-39
10.425748 7.487123 -69.583435 4.2381081e-39
18.726429 1.7445285 -62.537006 1.3544823e-38
11.426531 7.0841084 -69.926819 3.5923912e-39
19.581961 1.5725268 -62.667534 1.6962198e-38
-9.8392467 -61.324562 -656.46765 1.0310777e-38
20.43157 1.3777276 -62.153358 2.0100098e-38
4.7468462 -16.383514 -56.724861 2.1183261e-39
5.3417001 -16.422838 -56.477802 1.1052602e-39
93.614532 40.01123 -846.11383 1.5100988e-38
5.7464476 4.0403466 -73.694031 8.655574e-39
6.1246538 4.0455532 -73.788994 9.8541172e-39
19.595488 13.243332 -76.810875 1.6678386e-38
20.768791 -1.0347047 -66.642761 2.0375241e-38
21.43152 -1.0303507 -66.362312 2.0192295e-38
99.080055 15.902513 -1312.9353 1.0862867e-38
-51.450321 -31.989222 -222.66153 3.9629701e-39
-0.71741325 -13.812466 -67.720947 7.8268811e-39
912.24323 -307.27716 -2538.3416 5.9005231e-39
31.623928 10.717294 -226.63763 2.0355784e-38
39.643482 14.548954 -656.46765 1.4364146e-38
25.285126 25.463287 -90.225914 2.0194079e-38
84.625931 -17.446823 -237.96951 1.9729879e-38
85.522804 -17.446823 -237.96951 3.0424586e-39
-7.3288231 5.22545 -38.498608 1.8715721e-38
86.12072 -17.446823 -237.96951 0
-19.066854 -78.789825 -761.50244 8.3789801e-39
-18.156734 -19.053322 -75.696068 1.8428392e-39
79.008034 23.487648 -951.87805 1.1046898e-38
-16.757402 -19.822941 -75.247871 1.7513554e-39
-67.325943 -235.20804 -865.34369 1.3822156e-39
53.189144 30.495947 -470.06323 1.3720574e-38
-7.2548976 2.3779325 -42.40609 1.8343344e-38
9.6194935 5.2768679 -38.642223 9.1212199e-39
54.370213 30.495947 -470.06323 1.5009515e-38
10.114087 5.2443423 -38.272194 1.1241358e-38
55.551281 30.495947 -470.06323 1.6206619e-38
-64.918388 35.776829 -718.39856 9.7601223e-39
13.774068 5.4224691 -38.343658 9.3135593e-39
-25.241613 17.63954 -213.90518 1.8991226e-38
-7.2822704 -6.653193 -39.858932 2.7647885e-39
-24.166708 17.63954 -213.90518 1.8344415e-38
-6.0753541 -6.9437394 -39.661587 2.3956444e-39
-5.5402126 -6.8572659 -39.262589 2.3045264e-39
-52.45768 -199.17296 -746.57104 1.2900186e-39
-1.133943 14.068206 -56.659409 6.35716e-39
-0.81975234 14.129219 -56.24144 6.6333854e-39
-3.5542476 -0.63503194 -46.557358 1.2428401e-38
-50.581863 -199.17296 -746.57104 1.2903759e-39
4.6634674 -6.431838 -39.451103 1.3165593e-38
5.3824325 -6.4694195 -39.403194 1.2982281e-38
27.229237 25.058474 -105.17989 8.5691321e-39
31.910591 16.144913 -248.85701 1.860047e-38
-3.7755294 5.376123 -53.735569 3.7778488e-39
8.6954803 14.149826 -56.701881 7.2773143e-39
-1.3356113 5.1120834 -53.327343 9.0265145e-39
0.88549054 5.5991559 -53.930767 6.9085388e-39
1.6882069 5.1620665 -53.610035 5.5270462e-39
9.6650066 -0.72802901 -46.890545 1.2799333e-38
3.8016503 5.3503485 -53.208046 6.1713282e-39
4.2928267 5.4607959 -53.337364 5.9865797e-39
4.344614 -11.616949 -143.6797 1.2799328e-38
25.100664 -7.8817129 -89.168907 7.8304838e-39
-3.537071 2.2391419 -57.65089 1.4921284e-38
-2.5032163 2.7316225 -57.484604 1.5750321e-38
13.453624 -9.5687952 -43.126572 1.4754846e-39
17.456722 5.479435 -53.533714 7.0086699e-39
-76.503075 -51.46809 -346.13748 5.8065198e-39
765.51752 -272.00873 -2115.2847 0
18.698385 11.503851 -60.651211 8.111035e-39
9.7298059 2.6593022 -57.768627 1.2615667e-38
10.16226 2.4958665 -57.343224 1.0866108e-38
-53.506836 -199.32974 -761.50244 1.1981803e-39
4.075892 -14.102283 -147.00819 1.2337278e-38
20.743591 17.037481 -67.930695 2.0839812e-38
-3.1556795 20.22481 -78.667946 1.004714e-38
21.280884 17.296373 -67.830132 2.0932365e-38
-2.9519091 20.281445 -78.505409 9.861666e-39
-171.86757 -881.84882 -3807.5122 1.106342e-39
-131.85361 -88.679138 -576.89581 5.4370198e-39
-38.829941 23.7379 -396.61588 7.5474342e-39
34.626385 22.94684 -270.03632 1.823421e-38
35.531036 22.720678 -270.03632 1.8511874e-38
-2.4160528 -26.786415 -148.73094 7.8279629e-39
36.661846 22.607597 -270.03632 1.796122e-38
-28.755234 9.1608191 -336.948 1.0773198e-38
-27.908627 9.1608191 -336.948 1.0127831e-38
-148.22786 -95.952614 -634.58539 4.885288e-39
38.916485 10.195408 -594.92377 1.3167038e-38
22.447153 20.534981 -78.343872 1.2443144e-38
-146.63341 -95.952614 -634.58539 5.2533516e-39
1.649529 -14.791274 -162.7142 1.2153606e-38
21.328699 11.098954 -75.098862 9.6758426e-39
-33.892612 -4.905807 -614.11487 1.4367027e-38
-1.0830605 -15.192671 -66.681686 7.5510061e-39
-172.87189 -118.07352 -732.21393 5.2519111e-39
-0.83481503 -15.16196 -66.915855 7.4588118e-39
81.426392 -19.121065 -236.49144 1.9729519e-38
83.209 -19.121065 -236.49144 1.9637683e-38
-21.854362 -102.00327 -793.23175 7.1822376e-39
57.494915 21.376362 -1087.8606 1.4548899e-38
-7.0198474 3.5894556 -37.772938 1.8807197e-38
-6.8300328 3.5725081 -37.772945 1.8714641e-38
4.5018907 12.132071 -40.799625 4.7916364e-39
6.6232944 12.152321 -40.535511 1.7509897e-39
-17.837574 -21.24086 -74.365471 1.474414e-39
-16.405777 -21.573124 -74.632538 1.0137932e-39
35.220421 11.00254 -559.92828 1.3995719e-38
-15.515441 -21.403765 -74.43235 1.3822156e-39
-149.27136 -246.2182 -2379.6951 2.8562569e-39
-4.3647814 23.468275 -104.15276 7.0950824e-39
-40.064651 -156.12077 -614.11487 1.2903717e-39
-24.029184 18.203121 -208.06078 1.8806832e-38
-3.9331751 23.738098 -104.60198 7.0947223e-39
24.572035 20.380552 -93.642838 1.3452254e-38
-143.29221 -246.2182 -2379.6951 3.0402866e-39
-8.1207752 0.24012111 -41.190346 1.8896155e-38
8.6715012 3.0516467 -37.772942 3.5952624e-39
1.357692 9.8510237 -44.89991 1.1422511e-38
-7.8792262 0.14656819 -41.064655 1.8896158e-38
9.4106264 3.7418821 -37.772945 6.7259468e-39
5.88132 9.8499317 -44.136559 1.1605459e-38
31.513376 11.777466 -236.49144 1.9709334e-38
-131.33388 -581.05133 -2379.6951 1.1056287e-39
23.227289 -3.4695504 -80.361946 1.0872588e-38
-32.932838 19.953823 -319.95901 8.5648231e-39
29.278519 32.201603 -107.86153 1.0696852e-38
4.922863 6.6795244 -48.939747 7.736133e-39
5.1449676 6.6251841 -48.43137 8.5648147e-39
-4.0269008 -2.3240309 -45.836884 1.8064602e-38
-3.6963055 -2.1997795 -45.395893 1.7972404e-38
-100.52678 -162.02588 -2003.9539 9.2119848e-39
5.9945993 -8.6176662 -38.459724 5.8932868e-39
6.4674931 -8.4944811 -38.288765 6.6297728e-39
7.0448842 -8.2703457 -38.194489 7.366619e-39
-26.452877 -24.776674 -239.46619 4.9771207e-39
23.977051 -6.6138029 -84.423775 8.5684104e-39
-24.98489 12.404386 -216.33592 1.8712124e-38
31.703379 14.487046 -247.24106 1.8601546e-38
24.082376 -6.7957869 -84.051041 8.1081595e-39
-35.976566 8.8020325 -447.94263 9.391344e-39
13.580198 -8.0378036 -38.460587 1.8439112e-39
6.9182692 -2.7972651 -45.112957 8.9325182e-39
14.862944 -8.0756826 -38.486065 0
0.88226604 3.460305 -52.926247 9.0250768e-39
7.3488617 -2.5651696 -45.103729 7.8283244e-39
15.3718 -8.0920887 -38.852547 0
1.164825 3.3153148 -52.387817 8.8410456e-39
8.2355318 -2.1418047 -45.032684 9.0247124e-39
1.8330524 -11.841196 -42.82967 5.156449e-39
-47.072563 -29.334145 -197.28043 3.5030724e-39
-46.576881 -29.829826 -197.28043 3.963689e-39
-0.119153 -5.5769768 -49.129192 9.1136697e-39
37.527897 19.761374 -304.60098 1.6942028e-38
0.0042880001 -5.5769768 -49.129192 9.5742877e-39
-4.8773108 0.187104 -56.324638 1.390209e-38
-32.833469 -3.257709 -594.92377 1.4458864e-38
5.795949 -5.764194 -49.148415 1.0768153e-38
-31.338678 -3.257709 -594.92377 1.4734012e-38
-2.165849 -15.746186 -96.1493 8.3800605e-39
-31.388115 20.575907 -284.1427 1.5575664e-38
-30.674185 20.575907 -284.1427 8.2911159e-39
-11.457837 -12.232171 -253.83415 1.2891902e-38
-10.82006 -12.232171 -253.83415 1.3260323e-38
18.393227 9.8135509 -59.338268 6.3600439e-39
4.3568048 21.256948 -73.682091 8.3854541e-39
16.770399 -5.8796058 -49.427944 1.5949134e-38
17.154474 -5.884604 -49.641621 1.8899754e-38
-12.427002 -6.670043 -260.78851 1.4366308e-38
-11.77175 -6.670043 -260.78851 1.4641457e-38
20.137362 15.942321 -66.217606 1.9639826e-38
53.035709 14.453938 -585.77112 1.3259237e-38
-35.823051 -155.72636 -594.92377 1.2900171e-39
-34.328262 -155.72636 -594.92377 1.29002e-39
-32.833469 -155.72636 -594.92377 1.29002e-39
2.5882401 -13.738184 -157.66165 1.2245081e-38
9.7746239 3.338331 -67.033669 1.9709699e-38
-100.28378 -464.84106 -1903.7561 1.29002e-39
-114.667 -134.61966 -1523.0049 3.8689795e-39
-110.84033 -134.61966 -1523.0049 3.8689809e-39
-35.954197 19.151424 -349.31305 9.1126019e-39
-14.798183 -12.584454 -268.13467 1.1052665e-38
-30.858328 20.203451 -299.80411 8.0138073e-39
-60.239311 1.7066621 -827.72003 9.3016623e-39
24.973234 24.290886 -84.566559 2.1300788e-38
25.17181 24.490429 -84.520081 2.1392982e-38
8.4656658 6.8402953 -78.749046 5.0667898e-39
48.78513 9.0337095 -366.10696 2.0535862e-38
49.705002 9.0337095 -366.10696 2.0721332e-38
20.538746 15.449292 -81.565102 1.5848265e-38
21.304472 15.419985 -81.416252 1.5570961e-38
-15.882892 -78.268349 -705.09485 7.3662687e-39
-14.111288 -78.268349 -705.09485 7.826528e-39
-204.7625 463.44064 -2719.6516 6.6341085e-39
-2.157542 10.512279 -39.289322 9.9563923e-39
-1.9806824 10.696776 -39.483971 1.0048225e-38
-47.776005 -165.2383 -656.46765 1.198539e-39
277.30576 -45.254944 -777.04333 2.0006466e-38
45.60828 11.875757 -604.367 1.1325643e-38
-25.532017 24.781992 -260.78851 7.0028966e-39
4.5763736 10.224432 -39.356041 5.6203125e-39
5.457799 10.105992 -39.228695 7.5542571e-39
6.721199 10.459236 -39.272381 8.8449945e-39
7.1421723 10.469045 -39.324451 8.1081525e-39
85.633644 -15.647507 -242.51671 1.9822074e-38
22.311871 -2.434701 -75.446548 1.5852601e-38
36.262527 17.988674 -288.44791 1.8232405e-38
-4.1571126 13.063044 -50.566227 1.779843e-38
73.906212 34.944538 -667.98462 1.4824045e-38
4.8837924 7.1072111 -43.1623 1.4458855e-38
-2.655864 -1.7633662 -40.455963 1.5203281e-38
-13.07788 10.468902 -54.238071 1.9084858e-38
23.224613 -5.5283079 -79.489296 1.4932445e-38
-12.793576 10.462927 -54.105965 1.9084858e-38
5.848146 -1.5564409 -40.809349 6.4464788e-39
-3.508275 -10.172111 -37.772938 1.1978243e-39
6.8223433 -1.2119414 -40.708916 6.0776865e-39
1.9133074 -10.40938 -37.772942 4.7883896e-39
2.1985455 -10.510474 -37.772945 4.327773e-39
-366.53738 -277.32355 -2115.2847 4.7923749e-39
68.946426 14.963454 -761.50244 1.5193905e-38
70.859756 14.963454 -761.50244 1.5838916e-38
-27.70537 24.832157 -275.90668 6.4508032e-39
6.2671819 -10.551738 -37.772942 4.4206833e-39
23.87159 -8.6203308 -83.315369 7.5564277e-39
24.080927 -8.4109945 -83.315369 1.5946954e-38
-3.6141496 1.3468657 -51.439095 1.1421443e-38
-2.4262788 1.348593 -51.585022 1.6393174e-38
-1.929489 1.7820834 -51.314369 1.7222935e-38
13.493947 -10.562091 -37.772945 9.219563e-40
14.472263 -10.500875 -37.772945 0
8.6471329 -4.119875 -44.10247 4.0508288e-39
-25.715443 16.683264 -222.66153 1.8252224e-38
-13.274987 -1.4848475 -55.725052 1.8435179e-38
-12.838949 -1.6564506 -55.433979 1.8435177e-38
-29.519663 21.680182 -279.96414 8.4769393e-39
17.786699 10.1642 -54.336834 2.0469948e-38
-65.862373 -102.85603 -1312.9353 9.3038217e-39
18.370077 10.270099 -54.628925 2.0932368e-38
-183.61342 -120.88313 -761.50244 3.8704144e-39
-0.39199349 -7.336431 -48.518925 5.8936582e-39
9.2646418 1.3368129 -51.546364 1.2062854e-38
19.065107 10.144135 -54.444984 2.0932728e-38
-62.563526 -102.85603 -1312.9353 9.9473904e-39
33.440552 24.454367 -260.78851 1.0959026e-38
-43.324551 8.7000809 -507.6683 1.0956509e-38
-42.048996 8.7000809 -507.6683 1.0035634e-38
46.871395 9.78652 -396.61588 1.8969973e-38
6.7902322 5.5090508 -158.64635 1.1878468e-38
7.5874534 5.7747917 -158.64635 1.3722019e-38
8.384675 5.1104412 -158.64635 1.3996444e-38
-113.93621 -129.44199 -1464.4279 3.9611765e-39
-3.908906 4.0428338 -62.316078 1.2160083e-38
-135.25075 -726.90179 -3172.927 1.2896542e-39
8.3055258 -1.3110676 -55.61805 7.1815271e-39
18.3274 7.5221629 -58.337948 5.2551355e-39
5.75808 4.3846869 -62.726727 6.722707e-39
-12.993258 -8.5770483 -259.01443 1.3078802e-38
-127.27853 -726.90179 -3172.927 1.5658796e-39
9.6353445 4.3916864 -62.830578 1.556485e-38
10.608898 4.134655 -62.520725 7.5528264e-39
-61.577961 -229.9812 -846.11383 1.29002e-39
-119.30632 -726.90179 -3172.927 3.2239618e-39
-27.483379 16.036489 -237.96951 1.7697975e-38
-26.885464 16.335447 -237.96951 1.714408e-38
8.6775846 -4.1097713 -59.307446 9.0229188e-39
21.823345 19.137157 -72.662712 2.1208955e-38
22.285824 19.06439 -72.386429 2.1208591e-38
0.47226757 -13.201963 -56.762917 5.985488e-39
136.82483 8.2939548 -1813.1011 1.4547095e-38
-14.941363 -75.36911 -746.57104 8.7456074e-39
141.38039 8.2939548 -1813.1011 1.6389573e-38
-15.581622 -5.5495958 -270.03632 1.2987334e-38
61.052959 34.413116 -551.81335 1.344363e-38
-14.903135 -5.5495958 -270.03632 1.3447233e-38
20.570068 10.47512 -69.820114 4.7934357e-39
-58.957623 -216.12384 -810.10901 1.1978243e-39
33.992661 24.138922 -275.90668 1.3540146e-38
145.93594 8.2939548 -1813.1011 1.7125699e-38
-133.7117 -205.23277 -2538.3416 7.8308524e-39
1270.059 -471.19611 -3461.3748 0
-120.95615 -205.23277 -2538.3416 9.7633579e-39
23.450878 22.564835 -83.681587 1.2719726e-38
19.744528 13.558601 -80.15815 1.704753e-38
39.643482 17.847801 -656.46765 1.4364506e-38
-7.4365931 0.768188 -131.74783 1.5011317e-38
21.672754 -1.8268903 -70.435425 1.9729154e-38
-7.1339593 8.1900892 -38.702591 1.8257973e-38
22.463924 -1.8000484 -70.379166 2.01001e-38
-6.9032135 8.1582966 -38.852367 1.8257614e-38
0.73002124 8.023468 -38.557114 1.4370973e-38
-28.612295 22.010235 -259.01443 1.7422452e-38
1.4902284 8.2280912 -38.564514 1.2158998e-38
51.289532 12.323483 -453.27527 1.7681388e-38
4.4083958 8.6971989 -38.113235 1.0500191e-38
31.90901 10.332356 -230.75832 2.0724567e-38
32.488808 10.332356 -230.75832 2.0816762e-38
7.9018946 8.692523 -38.514088 1.1699452e-38
9.1818972 36.202087 -158.64635 1.1514702e-38
44.551029 10.249233 -376.98141 1.8785939e-38
22.655262 -4.5579443 -74.546043 1.9913547e-38
23.252064 -4.9076152 -74.609161 1.9822074e-38
-19.006285 -19.049137 -79.655067 1.7513512e-39
31.710335 16.036489 -237.96951 1.9157601e-38
-18.806147 -19.049137 -79.655067 1.8435469e-39
32.30825 16.634405 -237.96951 1.9251234e-38
46.886284 11.847649 -810.10901 1.408648e-38
-4.1740236 11.677334 -49.272919 1.3182169e-38
-204.7625 449.77399 -2719.6516 7.002891e-39
-10.207603 -7.3280468 -239.46619 1.454926e-38
-7.8356194 2.2066965 -46.053986 1.880504e-38
8.4628439 4.5912161 -92.191582 1.2063574e-38
4.9111309 -11.270514 -132.20529 1.1324923e-38
-12.654786 8.5056906 -53.887184 1.880899e-38
5.3263512 -11.353558 -132.20529 1.1048697e-38
6.405282 -3.6931243 -39.143456 8.6516167e-39
7.3933125 -3.2343488 -39.130756 7.9208844e-39
-26.220993 17.941931 -217.57213 1.8438771e-38
-7.4333186 -6.9282761 -43.583664 3.0413768e-39
-10.976483 -18.777218 -336.948 1.3167046e-38
-61.57832 -41.440582 -288.44791 5.62213e-39
32.73325 10.99896 -245.64595 2.0538376e-38
33.350452 10.381756 -245.64595 2.0539096e-38
17.74342 8.6069441 -53.465717 2.0654702e-38
18.108425 8.8593502 -53.570473 2.0839812e-38
9.5783138 -0.27700251 -50.539959 1.1140895e-38
19.110928 8.7835264 -53.930767 2.0748698e-38
-6.110332 -3.9651871 -54.083981 1.7880208e-38
-5.838552 -3.8292971 -54.083981 1.7787297e-38
9.1811962 5.1263199 -57.603516 5.5248882e-39
-3.7086084 2.9119563 -61.57888 1.5565216e-38
-26.954485 9.6652918 -325.42841 9.8523221e-39
-9.5112724 -78.413734 -634.58539 7.0900433e-39
-8.3712339 -6.1249218 -58.487133 6.2657029e-39
9.7502689 2.6117702 -61.285667 1.7589554e-38
-67.094124 -44.885674 -307.05743 5.8987154e-39
-4.7036624 20.721684 -82.413689 9.4936051e-39
17.858917 2.2426929 -61.610611 1.4188755e-38
18.34602 2.6272118 -61.522778 1.3084566e-38
19.416431 2.5185115 -61.198898 2.0006815e-38
20.259214 2.5182393 -61.037418 2.0194448e-38
-0.62563741 -9.1792564 -62.795959 6.2617218e-39
20.065083 8.7129688 -68.234985 5.8972581e-39
4.8259258 5.6968374 -72.387299 4.6047298e-39
118.60262 -5.372704 -1813.1011 1.2888653e-38
5.0891991 5.7768035 -72.249329 4.51253e-39
-15.311406 -24.529799 -359.19928 1.141856e-38
19.75333 -0.13919666 -65.496246 1.1425764e-38
-32.112038 16.308634 -297.46188 1.2712192e-38
20.578833 -0.57335407 -65.557426 2.019013e-38
21.232666 -0.72643346 -65.659973 2.0191936e-38
31.436806 11.50299 -225.29659 2.0171393e-38
65.822723 13.184989 -594.92377 1.7681031e-38
-111.77496 -74.768265 -494.48212 5.7136053e-39
-7.0198474 6.4841294 -37.772942 1.8716433e-38
-6.836812 6.5112453 -37.772945 1.8624599e-38
85.56002 42.379543 -810.10901 1.2429477e-38
60.228249 24.109694 -1087.8606 1.4548538e-38
-18.001316 -18.979387 -74.657104 2.0265088e-39
-17.813734 -18.979387 -74.657104 1.9343132e-39
-16.50617 -18.581282 -74.398575 2.119782e-39
23.307022 17.163589 -86.666077 1.4373138e-38
40.911572 9.6652918 -325.42841 2.0627699e-38
-63.708504 7.6147141 -793.23175 9.3917027e-39
9.1060133 34.716949 -157.33522 8.195658e-39
-61.71545 7.6147141 -793.23175 8.3793514e-39
-7.117239 3.1290436 -41.07354 1.7975997e-38
-59.722393 7.6147141 -793.23175 8.3800703e-39
4.4925165 12.640084 -44.249416 9.4918016e-39
4.6660709 -10.00948 -127.76887 1.2430189e-38
31.513376 14.154276 -236.49144 1.9525302e-38
32.107578 14.748479 -236.49144 1.9895525e-38
13.717409 6.6264906 -37.772942 0
27.668392 29.263483 -100.99502 2.0745809e-38
-566.38501 -391.34543 -2928.8557 5.4377387e-39
28.101368 29.312609 -100.72784 2.1116401e-38
-5.6129894 -5.890193 -38.318226 3.1335696e-39
-47.771763 -182.79298 -705.09485 1.1981789e-39
2.840138 -5.6910262 -38.931618 1.2153236e-38
-15.622695 54.042984 -239.46619 8.0184764e-39
3.2651088 -5.2763476 -38.551201 1.2429466e-38
4.7670269 -5.6671925 -38.861061 9.5746366e-39
-2.073194 0.61407053 -45.929047 1.5379381e-38
5.6043468 -5.9762383 -38.775036 1.0404039e-38
6.6883774 8.5329618 -98.470726 4.880951e-39
-1.6392001 0.54453844 -45.711315 1.5562693e-38
7.691679 8.3821363 -98.640213 5.3412116e-39
-0.68829095 0.873092 -45.901459 1.6021153e-38
32.324589 17.903711 -247.24106 1.8328921e-38
33.567013 17.903711 -247.24106 1.9066843e-38
12.404553 -5.0925832 -38.113235 3.8715004e-39
13.56904 -5.7255383 -38.292278 3.6878238e-39
0.0046219998 6.3627782 -52.955666 7.3687882e-39
-557.77826 -447.87418 -3172.927 4.0544497e-39
-95.571655 193.57626 -1087.8606 6.91178e-39
-4.4410858 -2.0259638 -49.836891 1.824755e-38
-59.960945 -210.42784 -746.57104 1.1978243e-39
-1.3171639 -25.304939 -132.20529 7.3662645e-39
-0.81889999 -25.304939 -132.20529 6.6297813e-39
47.905552 18.344334 -827.72003 1.4548177e-38
-4.2362986 3.2150478 -56.899536 6.9085458e-39
-12.78282 -23.215702 -339.95645 1.2431636e-38
-3.7881327 3.5868289 -56.755806 9.4885745e-39
-11.501571 -23.215702 -339.95645 1.2707147e-38
13.568937 -8.566638 -42.626865 1.8446231e-39
-31.338678 -0.26812801 -594.92377 1.5010238e-38
14.141369 -8.8313532 -42.484097 1.7520715e-39
17.681618 6.0672064 -52.69976 2.0655422e-38
1.9495567 3.9111576 -56.631348 7.5528292e-39
-29.843887 -0.26812801 -594.92377 1.5194271e-38
2.1403611 3.960573 -56.659409 7.0925727e-39
9.2543259 -2.0088601 -49.416145 9.0250754e-39
867.18634 -311.98898 -2379.6951 0
18.453163 12.570198 -59.299706 9.2173854e-39
3.6922669 -13.312146 -146.44278 1.2522383e-38
70.782349 18.344334 -827.72003 1.1875223e-38
92.435249 -22.894499 -259.01443 1.9362175e-38
-2.5154159 -15.947642 -100.46207 8.5640944e-39
-46.744865 -199.84016 -810.10901 1.0141533e-39
75.474396 11.075948 -1153.7916 1.2152886e-38
-12.259069 -12.397471 -257.26434 1.2616752e-38
-30.414198 20.887663 -288.44791 9.1208709e-39
-14.405401 31.161655 -191.33228 7.1865634e-39
-10.319881 -12.397471 -257.26434 1.3628387e-38
-15.921356 -6.762682 -264.41058 1.1327089e-38
-37.317841 -152.73679 -594.92377 1.2903731e-39
-13.596127 -6.4305067 -264.41058 1.4090802e-38
-35.823051 -152.73679 -594.92377 1.1981789e-39
-12.599599 -6.098331 -264.41058 1.4642176e-38
-34.328262 -152.73679 -594.92377 1.1059846e-39
-21.408354 -101.87395 -777.04333 6.9985652e-39
-32.833469 -152.73679 -594.92377 1.1978215e-39
-31.338678 -152.73679 -594.92377 1.1978243e-39
-0.72590703 -25.552727 -147.00819 4.6032823e-39
10.548539 6.7715554 -67.677727 3.1332039e-39
-9.0583544 -61.013088 -604.367 9.3906167e-39
-7.5398369 -61.013088 -604.367 9.6668434e-39
20.822371 0.89094299 -60.920197 2.0193372e-38
22.849625 21.05068 -77.70433 2.0932004e-38
23.14563 21.159554 -77.388458 2.1024561e-38
24.374901 21.63801 -77.411255 2.1209311e-38
-43.723309 -165.68057 -645.34106 1.2903731e-39
-470.71844 -391.34543 -2928.8557 3.6867462e-39
43.916431 7.6147141 -793.23175 1.3624784e-38
179.5826 -1.072511 -2379.6951 1.5928951e-38
-35.967827 -39.274101 -409.40991 4.1473642e-39
80.923759 -18.4125 -235.03162 1.9821714e-38
74.281395 34.342045 -656.46765 1.5745281e-38
113.21159 3.568475 -1730.6874 1.2520949e-38
24.563423 24.515842 -88.444077 1.558104e-38
7.6146102 -501.72995 -2928.8557 5.0642618e-39
117.56008 3.568475 -1730.6874 1.187558e-38
121.90856 3.568475 -1730.6874 1.2336198e-38
-5.5596447 24.603893 -103.42562 9.3084922e-39
-4.9437122 24.326069 -103.74693 7.7411679e-39
57.75642 14.912792 -604.367 1.4641812e-38
22.33255 -501.72995 -2928.8557 5.2493705e-39
35.537781 20.52529 -288.44791 1.7680313e-38
-27.21533 24.461836 -264.41058 7.8337391e-39
21.658112 -8.1859055 -72.111977 6.1771058e-39
-13.647668 34.888588 -217.57213 5.0675044e-39
22.146223 -8.0504875 -72.524307 1.871536e-38
4.7784801 -12.452352 -126.49542 1.0034908e-38
5.0963655 -12.451433 -126.49683 9.5750093e-39
31.31885 12.590567 -235.03162 1.9617139e-38
5.7474775 10.077577 -43.684502 1.1421788e-38
-191.26398 -127.91298 -793.23175 4.0544469e-39
-13.144761 13.535704 -54.515446 1.8810068e-38
23.320692 -2.447814 -79.989761 1.2254445e-38
-12.722015 13.452706 -54.326336 1.8626397e-38
-4.386168 -7.1791401 -37.772945 1.8428322e-39
-3.9828119 -7.1350756 -37.772942 1.9357439e-39
7.9842982 1.311771 -40.722057 1.2433431e-38
-28.946062 21.437826 -268.13467 8.8471651e-39
-8.0711279 -1.029495 -44.636719 1.8158234e-38
8.0866156 1.516405 -40.722057 1.1882414e-38
-63.703888 1.744588 -846.11383 9.5775303e-39
-3.2245681 -1.0588465 -44.309044 1.3993208e-38
33.547146 23.593212 -299.80411 4.5121754e-39
-31.796555 -106.7729 -1057.6423 8.3782626e-39
26.858267 24.456406 -103.74693 9.5825609e-39
-0.30987701 -24.45578 -127.76887 6.0784067e-39
-26.97858 -22.81761 -188.49071 4.3317485e-39
27.118938 24.456406 -103.74693 8.3843793e-39
7.0738945 -7.7994266 -37.772942 9.4849535e-39
-5.9455214 -10.850645 -41.058769 9.219563e-40
-2.8790758 4.8599219 -51.691078 3.6874623e-39
12.827652 -7.3367529 -37.772938 1.8439084e-39
13.575052 -7.4291878 -37.772949 1.0141505e-39
14.463041 -7.4526906 -37.772945 0
15.093566 -7.0876217 -37.772938 0
918.62097 -332.78824 -2538.3416 0
-98.46489 211.10612 -1153.7916 7.6486233e-39
-65.862373 -99.55719 -1312.9353 9.5793282e-39
4.2641578 -12.110462 -141.01897 1.2246874e-38
24.954605 -8.4286661 -87.865776 9.4910912e-39
-3.642241 1.6581219 -55.828625 1.4460304e-38
-2.8984387 1.7938997 -55.685875 1.6117669e-38
-25.605204 16.981178 -226.63763 1.8711763e-38
32.988651 18.629538 -257.26434 1.7775388e-38
-33.538078 20.828991 -333.99231 7.9180146e-39
-173.22021 -110.43063 -718.39856 3.5949037e-39
18.442217 10.222052 -58.547493 9.218114e-39
9.6038914 1.9226944 -55.368603 1.3168118e-38
32.576298 24.461836 -264.41058 8.1963993e-39
1252.665 -392.9234 -3461.3748 0
5.405201 7.619092 -62.112762 5.3415676e-39
-0.344565 -24.694613 -142.07135 4.6032823e-39
0.012447 -24.787102 -142.60345 4.8798706e-39
10.257787 7.4215055 -62.351582 5.0646262e-39
20.482061 16.05286 -65.988083 2.0748697e-38
18.296896 1.3016722 -55.574261 2.0192652e-38
-54.088207 10.506405 -718.39856 8.7488514e-39
-2.4395721 19.729649 -76.867752 1.0321924e-38
-1.7270002 19.32369 -76.661591 7.2794751e-39
1261.3619 -392.9234 -3461.3748 0
57.455353 14.063989 -634.58539 1.4088637e-38
1270.059 -392.9234 -3461.3748 0
36.403664 21.437826 -268.13467 1.8328919e-38
60.644241 14.063989 -634.58539 1.5102788e-38
9.5702953 4.5954394 -66.306152 1.8144528e-38
-21.854362 -82.072731 -793.23175 8.1945902e-39
22.09836 19.944111 -76.45607 1.3366545e-38
-3.3986158 7.8478684 -77.467911 5.252623e-39
-2.7102313 7.4363418 -77.231804 1.0502006e-38
-53.252491 29.821503 -543.9303 8.005534e-39
20.918051 10.330841 -73.221939 8.1092385e-39
-35.075012 -191.68343 -777.04333 1.5651663e-39
-33.122635 -191.68343 -777.04333 1.288578e-39
-31.862494 18.845278 -302.1835 9.2109114e-39
-30.306295 24.749361 -309.55383 7.1862046e-39
-2.012753 -27.637667 -161.33527 5.8018227e-39
-409.76236 -383.89215 -2719.6516 3.7785817e-39
-7.7908111 0.27839199 -135.01816 1.4551059e-38
7.9354963 11.664656 -38.266457 0
8.2010851 11.584624 -38.161182 0
21.846493 -1.620242 -74.292992 1.308168e-38
9.2829838 11.415 -38.075123 2.2119692e-39
22.039993 -1.916981 -74.951027 1.2622144e-38
10.702204 11.545967 -38.218567 0
-12.236546 -18.952925 -325.42841 1.2707143e-38
-11.418882 -18.952925 -325.42841 1.2982653e-38
23.713209 19.245953 -91.747826 1.4558242e-38
24.26911 19.390921 -91.527534 1.3267502e-38
1.3278584 8.8271704 -42.165352 1.298912e-38
8.5996666 36.312683 -162.7142 1.1422508e-38
-77.365273 -257.7973 -906.55054 9.2123743e-40
-171.01796 -187.20129 -2003.9539 4.1462838e-39
68.412415 15.535859 -906.55054 1.1233089e-38
23.030394 -4.898324 -78.994034 9.9527952e-39
-12.374277 11.485132 -53.262566 1.8809708e-38
861.20715 -294.05148 -2379.6951 0
-59.722393 -203.64905 -793.23175 1.1981803e-39
-160.9478 -187.20129 -2003.9539 3.7775041e-39
-484.48926 -275.38828 -2538.3416 1.7418148e-38
54.058945 15.153321 -614.11487 1.2060694e-38
544.69159 -191.99323 -1464.4279 0
79.8013 15.535859 -906.55054 1.5837837e-38
-27.78821 -24.119001 -187.56218 4.0562476e-39
82.079079 15.535859 -906.55054 1.6482127e-38
44.073105 3.4834609 -761.50244 1.3257078e-38
548.37109 -191.99323 -1464.4279 0
84.35685 15.535859 -906.55054 1.685091e-38
-26.486853 -25.618347 -237.96953 4.6086997e-39
24.111549 -7.5714188 -82.437195 1.9175978e-38
31.49884 13.467775 -245.64595 1.8601548e-38
-25.689631 -25.518694 -237.96951 4.6998135e-39
-15.718716 56.717602 -244.07132 8.7553226e-39
-24.493797 -25.219736 -237.96951 4.3303107e-39
-324.93414 -326.98248 -3807.5122 4.8827712e-39
-1.4473244 2.1680188 -50.38541 1.5843239e-38
7.1250429 -3.1662745 -43.941299 1.0495166e-38
-26.678337 17.698669 -221.36699 1.8899391e-38
8.5668459 -3.946717 -43.416603 4.6032851e-39
-669.36414 -453.80215 -3461.3748 4.7927322e-39
-7.3378773 13.203324 -114.6841 3.1349989e-39
765.51752 -266.69391 -2115.2847 0
7.920064 6.2541552 -157.33522 1.1878825e-38
-11.105716 -75.224846 -634.58539 7.4588273e-39
-7.1422911 10.675507 -118.61409 5.067873e-39
8.3624392 -0.80761927 -54.200268 8.1031219e-39
18.14493 8.4032278 -57.40073 6.0859766e-39
-13.517114 30.249607 -185.7323 7.0943649e-39
5.3737373 20.843052 -71.213211 7.6482548e-39
786.77673 -266.69391 -2115.2847 0
6.1909304 5.3129616 -61.164974 5.4330499e-39
-1.765835 -26.025362 -141.54321 7.0911181e-39
273.57056 114.94087 -2719.6516 1.3444706e-38
-446.22263 -351.92157 -2538.3416 4.4232322e-39
-9.4247932 -6.6805854 -62.403786 9.7684264e-39
8.753479 -3.7278094 -58.591869 8.2871502e-39
-14.492014 -10.014892 -262.58707 1.1604752e-38
-13.832245 -10.344776 -262.58707 1.2711459e-38
280.40387 114.94087 -2719.6516 1.4918396e-38
-11.324787 33.937298 -196.26352 6.2649644e-39
-270.77844 -264.51318 -3172.927 4.6987401e-39
5.300868 8.9131746 -72.662445 5.70999e-39
-14.487039 -18.559856 -63.038284 0
52.369602 16.17457 -594.92377 1.1414965e-38
40.349754 9.3457785 -314.67044 2.0996482e-38
4.5197573 -15.375024 -59.246937 4.2352172e-39
41.535706 9.3457785 -314.67044 2.0720255e-38
5.1053462 -15.723418 -59.12315 4.6965541e-39
24.747025 23.335703 -82.468559 2.1301146e-38
19.899918 14.25906 -79.571922 1.6401075e-38
20.421165 14.50756 -79.655075 1.6032655e-38
-8.3571196 1.417697 -130.6183 1.3263558e-38
20.916788 -0.902538 -69.353592 1.4836287e-38
-407.95596 -351.92157 -2538.3416 3.5016347e-39
-6.2517595 9.4361916 -37.772945 1.7889551e-38
-5.7694435 9.6777649 -37.772945 1.8257973e-38
-401.57819 -351.92157 -2538.3416 3.4094404e-39
-395.20044 -351.92157 -2538.3416 3.9626128e-39
4.3690352 9.0940819 -37.772942 7.4627845e-39
7.5283556 9.5795736 -37.772949 7.923041e-39
26.205338 26.623064 -93.093208 2.093273e-38
-6.8771572 34.38348 -161.33527 6.2664035e-39
22.344242 -3.7692707 -73.302635 2.0006101e-38
23.432446 -3.7124858 -73.22139 1.9914629e-38
37.612984 24.617603 -339.95645 5.6167181e-39
-18.398157 -18.932417 -78.343872 1.9357425e-39
74.068947 41.191921 -718.39856 1.0774271e-38
-29.006948 20.994286 -262.58707 1.6868199e-38
-5.1543808 26.042143 -108.16796 9.0322668e-39
-4.4203353 26.180042 -108.25602 8.3865429e-39
-3.795481 26.042143 -108.16796 8.3854653e-39
-3.3336051 12.692067 -48.783337 1.4108082e-38
-4.401742 -2.028187 -38.113235 1.8156795e-38
5.2131724 6.1905127 -41.886871 1.2339794e-38
-416.5957 -397.55881 -2719.6516 3.779302e-39
-13.396395 51.812 -232.16537 7.3727539e-39
-57.037762 32.126431 -614.11487 8.8367282e-39
-105.56187 -156.99078 -2003.9539 8.1989146e-39
-79.171982 -73.512871 -594.92377 2.9498958e-39
-77.677193 -73.512871 -594.92377 2.7658647e-39
-40.960411 -43.48204 -453.27527 4.2395598e-39
24.988493 -6.0381069 -77.07515 1.9729879e-38
88.328941 -19.120674 -244.0713 0
-76.182404 -73.512871 -594.92377 2.950256e-39
-409.76236 -397.55881 -2719.6516 3.6871063e-39
4.9397507 -2.1373668 -38.336487 7.090765e-39
5.2216392 -2.2446017 -38.613609 6.354279e-39
7.7069044 -2.9540365 -38.325016 8.9332357e-39
-26.07201 18.655329 -216.33592 1.871536e-38
40.338982 9.7691135 -667.98462 1.3718056e-38
14.149042 -2.367084 -38.961506 0
-796.85248 -458.98047 -4230.5693 1.7417791e-38
103.45287 6.9669218 -1523.0049 1.1968136e-38
-95.571655 196.30959 -1087.8606 7.4649523e-39
22.808022 -9.2443342 -81.662529 5.8039793e-39
23.199003 -9.1828012 -81.253311 4.2395444e-39
32.935902 25.884037 -304.60098 5.4359338e-39
45.374065 9.7691135 -667.98462 1.2430552e-38
-3.4417138 0.94015396 -49.417732 1.1145575e-38
-14.491152 -20.653204 -339.95645 1.2247962e-38
-11.501571 -20.653204 -339.95645 1.2706787e-38
-89.479736 -575.07214 -2379.6951 1.3814897e-39
11.552551 -5.8893847 -42.324955 3.4083446e-39
-31.338678 2.7214539 -594.92377 1.5194271e-38
-29.843887 2.7214539 -594.92377 1.5286466e-38
-7.2505207 11.622532 -113.31882 4.1473488e-39
-28.349098 2.7214539 -594.92377 1.5378302e-38
-6.8234382 11.33781 -113.31882 4.8845607e-39
-11.545854 31.42971 -180.45082 6.4500759e-39
-26.854307 2.7214539 -594.92377 1.5378302e-38
-10.86576 31.42971 -180.45082 6.2653245e-39
-1.3629138 -25.496031 -136.79724 6.9067283e-39
-13.759842 -23.424852 -343.01913 1.1786625e-38
-1.942637 18.481407 -70.510452 1.1427191e-38
9.4622297 4.6536589 -156.68774 1.4456343e-38
-3.0462661 3.1767759 -60.725872 1.5747805e-38
10.643299 4.6536589 -156.68774 1.3718776e-38
-2.893688 3.329354 -60.725872 1.5288264e-38
17.81336 6.3733253 -56.342121 4.242078e-39
-8.2506018 -5.4623713 -57.542419 1.2349185e-38
18.086298 6.7994995 -56.591537 1.300138e-38
-7.5969372 -5.758163 -57.243988 5.0678786e-39
3.966011 3.6287241 -60.629177 7.1840452e-39
4.1284504 3.5663035 -60.222565 7.3677148e-39
-12.259069 -9.4886894 -257.26434 1.2894052e-38
-11.612673 -9.4886894 -257.26434 1.3445429e-38
-29.689451 23.786652 -288.44791 8.0163254e-39
9.7235765 3.6455901 -60.331532 1.2524189e-38
42.052841 12.35675 -355.84225 1.8507202e-38
-6.0244312 0.45969301 -64.863922 1.5187795e-38
10.161832 3.7771327 -60.558487 8.4711813e-39
46.850929 11.012474 -405.0545 1.8233844e-38
21.562048 18.374733 -70.608688 2.1116038e-38
18.76074 3.3191938 -60.54747 1.2718325e-38
19.465086 3.4147401 -60.65715 2.0377399e-38
20.320663 3.5049374 -60.618126 2.0286644e-38
-30.882109 20.473114 -292.88556 9.3971019e-39
40.471439 10.749369 -309.55383 2.0259991e-38
-16.819309 -6.1842232 -268.13467 1.0405136e-38
-15.471892 -6.8579311 -268.13467 1.2433797e-38
11.510261 0.13297461 -64.491692 1.1048344e-38
12.024877 0.133288 -64.643669 1.3720218e-38
-0.74904299 -25.604872 -151.69371 5.2482887e-39
19.428375 0.45530695 -64.295517 1.2440995e-38
21.347443 0.21466449 -64.590004 2.0284492e-38
3.825891 -17.072945 -58.487133 0
22.999964 21.724249 -81.706268 1.225731e-38
23.106091 21.835827 -81.357101 1.3089598e-38
-39.945614 -172.5119 -692.27496 1.0141519e-39
19.731926 12.983167 -78.505409 1.7507792e-38
-36.466827 -172.5119 -692.27496 1.29002e-39
33.579506 26.287346 -284.1427 4.1433943e-39
52.282494 45.863804 -1153.7916 1.141785e-38
-16.533398 -17.405308 -73.632446 2.1194191e-39
139.54842 -46.019001 -396.61588 1.8991595e-38
9.2459955 35.288994 -156.36667 9.8551808e-39
3.7349925 13.148726 -43.286163 0
86.361526 -18.459068 -239.46619 1.4751315e-39
4.0154972 13.099791 -43.153 0
-136.50833 -151.15039 -1813.1011 4.1455635e-39
4.4755201 -9.6238613 -126.91708 1.3351782e-38
-18.246174 -20.359196 -77.283813 1.5673257e-39
-17.781448 -20.280718 -77.232124 1.4751301e-39
-64.36071 -219.01674 -777.04333 1.1056287e-39
3.3939843 4.8503428 -40.581429 5.1575407e-39
-4.5522556 -4.0980401 -37.772938 4.0551672e-39
-29.61977 24.13266 -268.13467 1.8252575e-38
24.891375 21.215912 -96.1493 1.4096184e-38
-28.609207 24.469513 -268.13467 1.2167295e-38
25.132956 21.457495 -96.1493 1.2714691e-38
-3.5600824 -28.533834 -170.74046 7.7357715e-39
-27.598644 24.13266 -268.13467 7.280924e-39
-2.988085 -28.390835 -170.74046 6.0787669e-39
22.725082 -8.1823463 -76.302849 1.3552765e-38
-16.725311 -80.862411 -667.98462 7.1825991e-39
-9.0467491 -0.78974801 -144.22395 1.2525993e-38
4.9426889 -12.222765 -130.84235 1.0311495e-38
-8.6843758 -0.78974801 -144.22395 1.3539066e-38
5.27144 -12.222765 -130.84235 9.9434317e-39
31.308094 12.527287 -239.46619 1.9247277e-38
3.8312271 -4.7262368 -37.772945 1.2338716e-38
4.3037863 -4.8513675 -37.772942 1.0957577e-38
5.3008528 -4.7882757 -37.772942 8.9317965e-39
-34.754288 -96.806274 -384.5972 1.3825701e-39
-33.78796 -96.806274 -384.5972 1.3825701e-39
73.894905 13.176368 -1087.8606 1.1692628e-38
-80.4739 -272.34616 -1001.9769 1.4744112e-39
10.917644 -4.5725765 -37.772942 3.3190287e-39
76.628235 13.176368 -1087.8606 1.1693347e-38
11.496017 -4.6295204 -37.772945 5.2551467e-39
12.418759 -4.6801391 -37.772945 7.5600431e-39
13.037239 -4.9205704 -37.772942 4.2409962e-39
-31.590462 20.933659 -322.67053 7.36664e-39
7.9729972 1.5297893 -44.051491 1.0957942e-38
-1.6669179 -7.8790951 -41.553791 6.540115e-39
8.0961094 1.6431353 -44.119778 1.123561e-38
41.883812 10.096778 -339.95645 1.9981611e-38
-0.98158002 -24.555326 -131.74783 6.446469e-39
-62.563526 -96.258339 -1312.9353 1.0407287e-38
-4.0101418 4.9592438 -55.101479 3.8704018e-39
8.7446642 5.6263452 -151.09175 1.4089721e-38
-3.866101 4.9520779 -55.021854 4.0544357e-39
11.550215 -7.4190207 -41.473427 1.7520687e-39
12.28428 -7.1553392 -41.581696 1.8439098e-39
13.617697 -7.0624771 -41.840996 2.7658647e-39
0.69906598 4.973639 -55.261425 6.1713324e-39
9.3645601 -1.7235079 -48.701328 9.8523137e-39
54.050991 16.730925 -976.28522 1.4547459e-38
-28.091099 -25.73105 -196.26352 3.5949121e-39
-403.74106 -240.11986 -2115.2847 1.7050443e-38
19.428257 13.110764 -58.63784 2.1024559e-38
3.6781199 -12.711334 -145.8817 1.2522742e-38
4.0446591 -12.161526 -145.8817 1.2707133e-38
25.412243 -8.5091505 -91.088821 7.7382882e-39
119.72173 15.229427 -1586.4635 1.1322766e-38
46.357761 12.910586 -400.79077 1.8139135e-38
17.916279 4.973639 -55.261425 2.0562867e-38
18.308407 4.7860851 -55.504326 2.0471034e-38
19.208166 4.9326916 -55.584595 2.0471397e-38
123.70784 15.229427 -1586.4635 1.2704624e-38
-67.325943 1.784237 -865.34369 9.852678e-39
127.69395 15.229427 -1586.4635 1.5376498e-38
19.170013 10.74443 -62.316547 7.189806e-39
3.7646639 -15.261404 -149.31421 1.1693345e-38
4.1398268 -15.824148 -149.31421 1.1510033e-38
36.403664 24.13266 -268.13467 1.5380457e-38
10.406116 7.4233718 -66.411362 4.9738697e-39
20.66724 16.983971 -69.101852 1.6595204e-38
19.498316 1.9224447 -59.679562 2.0377403e-38
730.26221 -252.65739 -2003.9539 0
-15.251884 -13.176569 -64.60022 2.9488182e-39
735.29724 -252.65739 -2003.9539 0
