# .PCD v.7 - Point Cloud Data file format
VERSION .7
FIELDS x y z rgb
SIZE 4 4 4 4
TYPE F F F F
COUNT 1 1 1 1
WIDTH 1070
HEIGHT 1
VIEWPOINT 0 0 0 1 0 0 0
POINTS 1070
DATA ascii
879.14465 -317.96814 -2379.6951 0
544.69159 -195.67271 -1464.4279 0
548.37109 -195.67271 -1464.4279 0
-14.344798 -8.0986824 -59.492378 4.9767661e-39
-13.95546 -7.9618392 -58.487133 4.7001765e-39
-13.808507 -7.9618392 -58.487133 4.4235868e-39
-13.6406 -7.9496269 -58.397427 4.4235854e-39
-13.725436 -8.0860481 -59.399567 4.515781e-39
-566.38501 -398.70438 -2928.8557 6.1753023e-39
-559.02606 -398.70438 -2928.8557 6.0831053e-39
-512.26233 -370.22549 -2719.6516 5.6221314e-39
-544.30811 -398.70438 -2928.8557 5.3451885e-39
-498.59564 -370.22549 -2719.6516 5.0686016e-39
-491.76233 -370.22549 -2719.6516 4.8842104e-39
-452.6004 -345.54379 -2538.3416 4.7920148e-39
-371.85217 -287.95316 -2115.2847 4.6998191e-39
-347.24594 -272.79773 -2003.9539 4.4232322e-39
-361.22256 -287.95316 -2115.2847 4.238841e-39
-376.84351 -304.8916 -2239.7131 3.9622541e-39
-394.41705 -323.94733 -2379.6951 3.8704172e-39
-414.33374 -345.54379 -2538.3416 3.8704172e-39
-407.95596 -345.54379 -2538.3416 3.6860259e-39
-430.26236 -370.22549 -2719.6516 3.5938303e-39
-423.42902 -370.22549 -2719.6516 4.1470041e-39
-448.64151 -398.70438 -2928.8557 4.5157894e-39
-441.28256 -398.70438 -2928.8557 4.2388438e-39
-5.1216998 -5.1420212 -37.772938 2.5807588e-39
-1.121789 -8.7258539 -64.099533 6.7223398e-39
-0.94954503 -8.6242208 -63.352951 6.6294253e-39
-0.79036599 -8.6242208 -63.352951 6.6294253e-39
-0.63435298 -8.6674862 -63.670773 6.9982078e-39
-0.476767 -8.7111883 -63.991802 6.9982078e-39
-0.318661 -8.7850122 -64.534103 7.1825991e-39
-0.15704601 -8.8148928 -64.753609 7.6435773e-39
0.0056710001 -8.8449774 -64.974609 8.1045554e-39
0.169503 -8.8752689 -65.197128 8.2889467e-39
0.33503699 -8.9210968 -65.533775 8.4722589e-39
2.7368481 -5.4848218 -40.291134 1.2798254e-38
2.8261199 -5.4617038 -40.121311 1.2982646e-38
2.923847 -5.455955 -40.079075 1.3166677e-38
3.011868 -5.4330788 -39.91103 1.3074479e-38
3.083061 -5.3823018 -39.538029 1.2890085e-38
3.10502 -5.2514262 -38.576618 1.2797889e-38
3.1987059 -5.24611 -38.537575 1.25213e-38
3.285558 -5.2302289 -38.42091 1.2152517e-38
3.38551 -5.2355118 -38.459721 1.233763e-38
3.4856629 -5.2408061 -38.498608 1.2153599e-38
3.9894061 -5.1420212 -37.772938 1.086358e-38
4.0843129 -5.1420212 -37.772938 1.0772104e-38
4.1792202 -5.1420212 -37.772938 1.0219649e-38
4.274127 -5.1420212 -37.772938 9.851585e-39
4.3690348 -5.1420212 -37.772938 9.5749981e-39
4.5635428 -5.256752 -38.615742 9.390967e-39
4.5588498 -5.1420212 -37.772938 9.575717e-39
4.6537571 -5.1420212 -37.772938 9.6686329e-39
4.7486639 -5.1420212 -37.772938 9.2998518e-39
4.8435721 -5.1420212 -37.772938 9.2991343e-39
4.9384789 -5.1420212 -37.772938 9.9437849e-39
5.2232008 -5.1420212 -37.772938 1.0128176e-38
5.318109 -5.1420212 -37.772938 9.9441436e-39
6.5265002 -5.8899512 -43.267185 1.0865738e-38
6.6276798 -5.883265 -43.218075 1.0773901e-38
6.736269 -5.883265 -43.218075 1.0404759e-38
11.564283 -5.746294 -42.211887 2.8551708e-39
11.417192 -5.621645 -41.29623 2.394557e-39
11.45881 -5.5913239 -41.073486 2.3952801e-39
11.574496 -5.597362 -41.117844 2.1201309e-39
11.665211 -5.5913239 -41.073486 2.1208498e-39
11.781119 -5.597362 -41.117844 2.3974367e-39
11.807922 -5.561327 -40.853134 2.6740236e-39
11.392179 -5.1420212 -37.772938 3.1350017e-39
11.487086 -5.1420212 -37.772938 3.1350031e-39
11.581993 -5.1420212 -37.772938 3.0428089e-39
11.676901 -5.1420212 -37.772938 3.1350031e-39
11.771809 -5.1420212 -37.772938 3.4115928e-39
11.866715 -5.1420212 -37.772938 3.7800152e-39
11.961623 -5.1420212 -37.772938 3.780018e-39
12.61992 -5.3823018 -39.538029 3.6874651e-39
12.732484 -5.387897 -39.579128 3.5027179e-39
12.831929 -5.387897 -39.579128 3.4105222e-39
12.720881 -5.1420212 -37.772938 4.6094144e-39
12.815789 -5.1420212 -37.772938 4.8860026e-39
12.910696 -5.1420212 -37.772938 5.0703925e-39
13.005604 -5.1420212 -37.772938 5.0703925e-39
13.100512 -5.1420212 -37.772938 4.7938056e-39
13.195418 -5.1420212 -37.772938 4.4250231e-39
1387.4982 -518.31567 -3807.5122 0
1270.059 -471.19611 -3461.3748 0
937.75433 -345.54379 -2538.3416 0
643.72644 -235.59805 -1730.6874 0
648.07489 -235.59805 -1730.6874 0
-14.642219 -8.4191761 -60.725872 4.3317555e-39
-14.195319 -8.2481623 -59.492378 3.9633317e-39
-14.04584 -8.2481623 -59.492378 3.8711333e-39
-13.896361 -8.2481623 -59.492378 3.8707731e-39
-14.076807 -8.4461174 -60.920197 3.9626086e-39
-736.30054 -527.88239 -3807.5122 5.9912684e-39
-605.61157 -439.90198 -3172.927 5.438096e-39
-651.97021 -479.89307 -3461.3748 4.9764032e-39
-565.75049 -439.90198 -3172.927 4.6076235e-39
-446.22263 -351.92157 -2538.3416 4.4232322e-39
-366.53738 -293.26797 -2115.2847 4.238841e-39
-361.22256 -293.26797 -2115.2847 4.1466453e-39
-355.90775 -293.26797 -2115.2847 3.7778628e-39
-371.21603 -310.51904 -2239.7131 3.6856672e-39
-388.4379 -329.92648 -2379.6951 3.5938317e-39
-407.95596 -351.92157 -2538.3416 3.5016347e-39
-401.57819 -351.92157 -2538.3416 3.4094404e-39
-395.20044 -351.92157 -2538.3416 3.9626128e-39
-416.5957 -377.05884 -2719.6516 4.3317569e-39
-441.28256 -406.06335 -2928.8557 4.05517e-39
-5.2166071 -5.236928 -37.772938 2.7647899e-39
-5.1216998 -5.236928 -37.772938 2.5807588e-39
-5.026793 -5.236928 -37.772938 2.6729544e-39
-1.125579 -8.9169321 -64.316086 6.9067311e-39
-0.94954503 -8.7834005 -63.352951 6.8145355e-39
-0.78905302 -8.7688103 -63.247711 6.6301442e-39
-0.63013798 -8.7688103 -63.247711 6.9067311e-39
-0.47516999 -8.8422508 -63.777424 6.9067311e-39
-0.318122 -8.9320192 -64.424911 7.183318e-39
-0.157582 -9.0082312 -64.974609 7.5521005e-39
0.0056810002 -9.0236301 -65.085678 8.0123598e-39
0.170086 -9.0701437 -65.421173 8.1045554e-39
0.334461 -9.0701437 -65.421173 8.195672e-39
2.7253129 -5.5625119 -40.121311 1.261422e-38
2.8231461 -5.5566559 -40.079075 1.2890446e-38
2.8964081 -5.504508 -39.702942 1.2890448e-38
2.9930429 -5.498775 -39.661587 1.2798252e-38
3.0295801 -5.3865552 -38.852165 1.2797889e-38
3.10502 -5.348352 -38.576618 1.2705694e-38
3.1987059 -5.3429389 -38.537575 1.2429104e-38
3.2955339 -5.3429389 -38.537575 1.2244713e-38
3.3923631 -5.3429389 -38.537575 1.2429826e-38
3.5212679 -5.3920569 -38.891853 1.1876652e-38
3.8944981 -5.236928 -37.772938 1.003382e-38
3.9894061 -5.236928 -37.772938 1.0126374e-38
4.0843129 -5.236928 -37.772938 9.7579517e-39
4.1792202 -5.236928 -37.772938 9.3902481e-39
4.274127 -5.236928 -37.772938 9.3906069e-39
4.6605682 -5.353776 -38.615742 9.2991315e-39
4.6537571 -5.236928 -37.772938 9.3916859e-39
4.7486639 -5.236928 -37.772938 9.1147417e-39
4.8435721 -5.236928 -37.772938 9.3902509e-39
5.174623 -5.4873428 -39.579128 1.0127816e-38
5.455945 -5.470284 -39.456085 9.7590335e-39
6.6352119 -5.9986629 -43.267185 1.0404759e-38
6.7210112 -5.9782829 -43.120186 1.0035618e-38
11.534952 -5.8915439 -42.494556 4.3299408e-39
11.564283 -5.852355 -42.211887 2.855531e-39
11.517123 -5.7755179 -41.657684 2.2108846e-39
11.508469 -5.719202 -41.251488 2.2112476e-39
11.574496 -5.7006741 -41.117844 2.0279367e-39
11.665211 -5.6945238 -41.073486 2.1204953e-39
11.705276 -5.6639738 -40.853134 2.3974409e-39
11.732391 -5.6277442 -40.591816 2.6740278e-39
11.821778 -5.6217499 -40.548588 2.6736691e-39
12.091055 -5.7006741 -41.117844 2.5814734e-39
11.487086 -5.236928 -37.772938 2.9506147e-39
11.581993 -5.236928 -37.772938 2.8584191e-39
11.676901 -5.236928 -37.772938 2.8580603e-39
11.771809 -5.236928 -37.772938 3.13465e-39
11.866715 -5.236928 -37.772938 3.4112369e-39
12.559704 -5.498775 -39.661587 3.6878252e-39
12.659357 -5.498775 -39.661587 3.6878252e-39
12.759009 -5.498775 -39.661587 3.4105208e-39
12.87207 -5.504508 -39.702942 3.2261296e-39
12.910696 -5.236928 -37.772938 4.7938056e-39
13.005604 -5.236928 -37.772938 4.8860012e-39
13.100512 -5.236928 -37.772938 4.8860012e-39
13.195418 -5.236928 -37.772938 4.70161e-39
13.290326 -5.236928 -37.772938 4.5172201e-39
214.16373 -83.790848 -604.367 4.3328303e-39
944.13208 -351.92157 -2538.3416 0
-46.367027 -27.14389 -192.2986 3.5945506e-39
-14.48964 -8.5717545 -60.725872 3.410518e-39
-14.337062 -8.5717545 -60.725872 3.5952666e-39
-14.229874 -8.599184 -60.920197 3.6867434e-39
-49.706242 -30.364351 -215.11369 3.7785789e-39
-557.77826 -447.87418 -3172.927 4.0544497e-39
-366.53738 -298.58279 -2115.2847 3.9622541e-39
-361.22256 -298.58279 -2115.2847 3.8700585e-39
-355.90775 -298.58279 -2115.2847 3.8700585e-39
-371.21603 -316.14648 -2239.7131 3.5934716e-39
-388.4379 -335.90564 -2379.6951 3.5016347e-39
-382.45874 -335.90564 -2379.6951 3.3176035e-39
-376.47955 -335.90564 -2379.6951 3.2254079e-39
-395.20044 -358.29935 -2538.3416 3.5941904e-39
-388.82266 -358.29935 -2538.3416 4.0551686e-39
-409.76236 -383.89215 -2719.6516 3.7785817e-39
-5.2166071 -5.3318362 -37.772938 2.6725943e-39
-5.1216998 -5.3318362 -37.772938 2.5807588e-39
-5.026793 -5.3318362 -37.772938 2.6729544e-39
-4.9318848 -5.3318362 -37.772938 2.8573457e-39
-0.94796699 -8.9277248 -63.247711 6.9067311e-39
-0.78774399 -8.912919 -63.142822 6.6301442e-39
-0.628052 -8.8981628 -63.038284 6.7223398e-39
-0.47358301 -8.9724379 -63.56448 6.7223398e-39
-0.315983 -9.0327568 -63.991802 6.9067311e-39
-0.157582 -9.1714849 -64.974609 7.2755136e-39
0.0056810002 -9.1871624 -65.085678 7.6435773e-39
0.16979399 -9.2186794 -65.30896 7.8279685e-39
0.334461 -9.234519 -65.421173 8.0112808e-39
2.605288 -5.6218519 -39.827534 1.2246155e-38
2.6968939 -5.6042652 -39.702942 1.2706413e-38
2.7966509 -5.6042652 -39.702942 1.2798608e-38
2.8933909 -5.5984268 -39.661587 1.2798251e-38
2.950022 -5.5179572 -39.091503 1.2706413e-38
3.0295801 -5.4841738 -38.852165 1.2705694e-38
3.1081691 -5.4508009 -38.615742 1.2613498e-38
3.201947 -5.4452791 -38.576618 1.2429104e-38
3.2988729 -5.4452791 -38.576618 1.2336908e-38
3.4235489 -5.4897761 -38.891853 1.2153239e-38
3.704684 -5.3318362 -37.772938 1.0310405e-38
3.7995911 -5.3318362 -37.772938 9.6653959e-39
3.8944981 -5.3318362 -37.772938 9.4813634e-39
3.9894061 -5.3318362 -37.772938 9.389888e-39
4.0843129 -5.3318362 -37.772938 9.1133011e-39
4.1792202 -5.3318362 -37.772938 9.0214642e-39
4.274127 -5.3318362 -37.772938 9.2062142e-39
4.7035012 -5.5010142 -38.971466 9.0221845e-39
4.7818422 -5.4785829 -38.812561 9.0221831e-39
5.174623 -5.5867882 -39.579128 1.0128175e-38
5.2740679 -5.5867882 -39.579128 1.068099e-38
5.3623648 -5.5751972 -39.497017 9.9437835e-39
5.4446611 -5.5579009 -39.374481 9.4828053e-39
11.534952 -5.9983149 -42.494556 4.1462684e-39
11.564283 -5.958415 -42.211887 2.8562512e-39
11.55505 -5.89955 -41.794865 2.2116035e-39
11.55856 -5.8481941 -41.431038 2.0275752e-39
11.599549 -5.8165479 -41.206844 2.0279395e-39
11.677808 -5.8039851 -41.117844 2.2126923e-39
11.705276 -5.7666211 -40.853134 2.4892806e-39
11.719897 -5.7236319 -40.548588 2.7658675e-39
11.796653 -5.7114668 -40.462406 2.6736719e-39
11.910975 -5.7175431 -40.505451 2.489282e-39
11.581993 -5.3318362 -37.772938 2.8580631e-39
11.676901 -5.3318362 -37.772938 2.8580631e-39
12.438137 -5.633637 -39.91103 3.0424572e-39
12.525288 -5.627738 -39.86924 3.2268498e-39
12.612255 -5.6218519 -39.827534 3.595631e-39
12.672558 -5.6042652 -39.702942 3.7796607e-39
12.772314 -5.6042652 -39.702942 3.5027137e-39
12.925985 -5.627738 -39.86924 3.2264855e-39
13.100512 -5.3318362 -37.772938 4.6094144e-39
13.195418 -5.3318362 -37.772938 4.7016114e-39
13.290326 -5.3318362 -37.772938 4.7016128e-39
214.16373 -85.309372 -604.367 4.6094186e-39
-50.443249 -30.055807 -209.20396 3.2261268e-39
-46.352062 -27.908964 -194.26083 3.5030724e-39
-46.099167 -28.052086 -195.25703 3.8714948e-39
-51.450321 -31.989222 -222.66153 3.9629701e-39
-63.261578 -42.078129 -292.88556 5.8061611e-39
-61.57832 -41.440582 -288.44791 5.62213e-39
-549.80603 -455.84641 -3172.927 3.8704172e-39
-406.37537 -341.8848 -2379.6951 3.8704172e-39
-382.45874 -341.8848 -2379.6951 3.2254079e-39
-376.47955 -341.8848 -2379.6951 3.1335724e-39
-395.20044 -364.67712 -2538.3416 3.5023549e-39
-416.5957 -390.72549 -2719.6516 3.8711375e-39
-409.76236 -390.72549 -2719.6516 3.7789418e-39
-5.3115149 -5.426743 -37.772938 3.0410167e-39
-5.2166071 -5.426743 -37.772938 2.5807588e-39
-5.1216998 -5.426743 -37.772938 2.4885631e-39
-5.026793 -5.426743 -37.772938 2.5814776e-39
-4.9318848 -5.426743 -37.772938 2.7658689e-39
-4.836978 -5.426743 -37.772938 2.6733131e-39
-0.94639498 -9.0715704 -63.142822 6.6312232e-39
-0.78644001 -9.056551 -63.038284 6.3546363e-39
-0.62701303 -9.0415812 -62.934086 6.5379486e-39
-0.470442 -9.0715704 -63.142822 6.5379486e-39
-0.315983 -9.1935406 -63.991802 6.7223398e-39
-0.157582 -9.3347387 -64.974609 6.9067311e-39
0.0057000001 -9.3827734 -65.30896 7.3669904e-39
0.170086 -9.3988953 -65.421173 7.5513816e-39
2.3245311 -5.7702069 -40.163631 1.1877729e-38
2.4076669 -5.7279129 -39.86924 1.1969924e-38
2.5026 -5.7159419 -39.785915 1.2154315e-38
2.5944321 -5.6980801 -39.661587 1.2154315e-38
2.688484 -5.686234 -39.579128 1.2522379e-38
2.7937379 -5.6980801 -39.661587 1.2614214e-38
2.8606131 -5.6335292 -39.21228 1.2614216e-38
2.950022 -5.616178 -39.091503 1.2614216e-38
3.0357749 -5.5932069 -38.931618 1.2429826e-38
3.609776 -5.426743 -37.772938 1.0402598e-38
3.704684 -5.426743 -37.772938 1.0310402e-38
3.7995911 -5.426743 -37.772938 1.0126371e-38
3.8944981 -5.426743 -37.772938 9.5735562e-39
4.0843129 -5.426743 -37.772938 8.9292672e-39
4.1792202 -5.426743 -37.772938 8.9296259e-39
4.274127 -5.426743 -37.772938 9.2062128e-39
4.610301 -5.6046691 -39.011395 9.1140172e-39
4.7035012 -5.5989318 -38.971466 9.1140172e-39
4.7818422 -5.5761032 -38.812561 8.9296273e-39
5.174623 -5.686234 -39.579128 9.7597523e-39
5.2576718 -5.6685562 -39.456085 1.0312926e-38
5.3457289 -5.6568322 -39.374481 9.9445009e-39
5.4166532 -5.6277332 -39.171936 9.7597495e-39
11.54784 -6.111907 -42.542038 3.5927359e-39
11.577118 -6.0712061 -42.258739 2.5800245e-39
11.567747 -6.0111609 -41.840794 2.2119636e-39
11.596416 -5.971787 -41.566727 1.8435455e-39
11.662659 -5.952292 -41.431038 2.0282997e-39
11.690433 -5.9136829 -41.162296 2.1204981e-39
11.730448 -5.8818889 -40.94099 2.3970864e-39
11.719897 -5.8255129 -40.548588 2.6736719e-39
11.809202 -5.8193159 -40.505451 2.5814776e-39
11.923659 -5.8255129 -40.548588 2.397085e-39
12.75918 -5.978313 -41.612156 2.8580645e-39
12.821695 -5.958776 -41.47617 2.9502602e-39
12.65783 -5.7885261 -40.291134 3.1346528e-39
12.638696 -5.7339172 -39.91103 3.4112397e-39
12.725636 -5.7279129 -39.86924 3.5952694e-39
12.812394 -5.721921 -39.827534 3.4108754e-39
13.03518 -5.7763009 -40.206043 3.1342871e-39
13.640331 -5.9979792 -41.749039 3.0420914e-39
13.745229 -5.9979792 -41.749039 3.04209e-39
13.880567 -6.0111609 -41.840794 3.04209e-39
13.985695 -6.0111609 -41.840794 3.1342857e-39
13.408248 -5.5142708 -38.382179 4.4250259e-39
-51.576805 -31.268671 -213.90518 3.2264841e-39
-46.589767 -28.542685 -195.25703 3.7793006e-39
-46.099167 -28.542685 -195.25703 3.8714976e-39
-76.503075 -50.598396 -346.13748 6.0831067e-39
-67.094124 -44.885674 -307.05743 5.8987154e-39
-63.261578 -42.814026 -292.88556 5.6221271e-39
-61.57832 -42.165329 -288.44791 5.3455417e-39
-7.501749 -5.821991 -39.827534 3.9626114e-39
-7.40168 -5.821991 -39.827534 3.8700585e-39
-416.5957 -397.55881 -2719.6516 3.779302e-39
-409.76236 -397.55881 -2719.6516 3.6871063e-39
-5.3115149 -5.5216498 -37.772938 2.948821e-39
-5.2166071 -5.5216498 -37.772938 2.4885631e-39
-5.1216998 -5.5216498 -37.772938 2.4885631e-39
-5.026793 -5.5216498 -37.772938 2.5814776e-39
-4.9318848 -5.5216498 -37.772938 2.6736733e-39
-4.836978 -5.5216498 -37.772938 2.489282e-39
-4.7420712 -5.5216498 -37.772938 2.6736733e-39
-4.6471629 -5.5216498 -37.772938 2.8573457e-39
-0.78644001 -9.2149391 -63.038284 6.2624407e-39
-0.62597901 -9.1845274 -62.830235 6.3535573e-39
-0.46966299 -9.2149391 -63.038284 6.4457529e-39
-0.32083601 -9.4979935 -64.974609 6.5379486e-39
2.030355 -5.895999 -40.333817 1.0771743e-38
2.129441 -5.88976 -40.291134 1.1140526e-38
2.2236171 -5.8711219 -40.163631 1.1232722e-38
2.309911 -5.834197 -39.91103 1.1324556e-38
2.405149 -5.821991 -39.827534 1.1508946e-38
2.505218 -5.821991 -39.827534 1.1785532e-38
2.5890391 -5.7856789 -39.579128 1.1877728e-38
2.6635649 -5.7320528 -39.21228 1.2153596e-38
2.762089 -5.7320528 -39.21228 1.2153595e-38
2.840138 -5.6910262 -38.931618 1.2153236e-38
3.0357749 -5.6910262 -38.931618 1.2245434e-38
3.609776 -5.5216498 -37.772938 1.0402598e-38
3.704684 -5.5216498 -37.772938 1.0310763e-38
3.7995911 -5.5216498 -37.772938 1.0311123e-38
4.1792202 -5.5216498 -37.772938 9.0218216e-39
4.4415679 -5.7379618 -39.252705 9.2984084e-39
4.5401931 -5.7379618 -39.252705 9.3906041e-39
4.610301 -5.7026882 -39.011395 9.2984084e-39
4.7035012 -5.6968508 -38.971466 9.3906041e-39
4.7769728 -5.6678448 -38.773037 9.2980497e-39
5.0751772 -5.7856789 -39.579128 9.1147403e-39
5.1478672 -5.755764 -39.374481 9.3909684e-39
5.2359691 -5.7438841 -39.293213 1.0037058e-38
5.3073101 -5.7143979 -39.091503 1.0221088e-38
5.394454 -5.7026882 -39.011395 1.0313283e-38
5.4924731 -5.7026882 -39.011395 1.0128891e-38
5.6134982 -5.7261562 -39.171936 9.4835228e-39
11.54784 -6.2187972 -42.542038 2.8558911e-39
11.589982 -6.184248 -42.305691 2.3034376e-39
11.580473 -6.1230178 -41.886822 2.1201281e-39
11.660063 -6.1095762 -41.794865 1.8439028e-39
11.700855 -6.0762262 -41.566727 1.9361026e-39
11.779575 -6.0629878 -41.47617 2.0286584e-39
11.781119 -6.0106091 -41.117844 2.2130524e-39
11.820605 -5.9783282 -40.897018 2.4892778e-39
11.885064 -5.959126 -40.765656 2.397085e-39
12.00034 -5.9655132 -40.809349 2.2130496e-39
12.682347 -6.0961919 -41.703312 2.6736691e-39
12.75918 -6.0828671 -41.612156 2.6736719e-39
12.821695 -6.0629878 -41.47617 2.8580631e-39
12.925907 -6.0629878 -41.47617 2.9502588e-39
12.848173 -5.9783282 -40.897018 2.9502588e-39
12.759065 -5.88976 -40.291134 3.1346486e-39
12.833138 -5.8773222 -40.206043 3.3190385e-39
12.934159 -5.8773222 -40.206043 3.3186769e-39
13.535434 -6.1028771 -41.749039 3.04209e-39
13.685349 -6.1230178 -41.886822 2.9498944e-39
13.775438 -6.1162901 -41.840794 2.9498944e-39
13.880567 -6.1162901 -41.840794 2.9498944e-39
13.985695 -6.1162901 -41.840794 3.04209e-39
14.090823 -6.1162901 -41.840794 3.3186755e-39
13.85977 -5.5216498 -37.772938 0
13.954678 -5.5216498 -37.772938 0
14.049584 -5.5216498 -37.772938 0
-50.443249 -31.107088 -209.20396 3.410874e-39
-47.072563 -29.334145 -197.28043 3.5030724e-39
-46.099167 -29.033283 -195.25703 3.595268e-39
-111.77496 -73.525848 -494.48212 5.8061611e-39
-89.589523 -59.594631 -400.79077 5.8983567e-39
-76.503075 -51.46809 -346.13748 5.8065198e-39
-67.094124 -45.657177 -307.05743 5.6221271e-39
-63.751976 -43.88752 -295.15598 5.3455403e-39
-7.633759 -5.9469428 -39.994877 3.595268e-39
-7.501749 -5.92206 -39.827534 3.7785817e-39
-7.3862271 -5.909698 -39.744389 3.8700585e-39
-7.30161 -5.92206 -39.827534 3.6856672e-39
-7.9868588 -6.5678539 -44.170677 3.5934716e-39
-7.8850241 -6.5754819 -44.221977 3.5938317e-39
-7.8560319 -6.6449409 -44.68911 3.5938317e-39
-5.4064221 -5.6165581 -37.772938 3.1332123e-39
-5.3115149 -5.6165581 -37.772938 2.948821e-39
-5.2166071 -5.6165581 -37.772938 2.4885631e-39
-5.1216998 -5.6165581 -37.772938 2.4885631e-39
-5.026793 -5.6165581 -37.772938 2.489282e-39
-4.9318848 -5.6165581 -37.772938 2.5814776e-39
-4.836978 -5.6165581 -37.772938 2.3970864e-39
-4.7420712 -5.6165581 -37.772938 2.5814776e-39
-4.6471629 -5.6165581 -37.772938 2.6736733e-39
-4.5522561 -5.6165581 -37.772938 2.5814776e-39
-0.62392002 -9.3116617 -62.623558 5.9858538e-39
-0.360912 -7.2029142 -48.441631 6.0780494e-39
1.96016 -6.0941768 -40.985062 1.0219289e-38
2.0325079 -6.0037012 -40.376587 1.0587352e-38
2.1271901 -5.9846621 -40.248543 1.0771743e-38
2.2236171 -5.9720359 -40.163631 1.0771743e-38
2.322082 -5.9657431 -40.121311 1.0771742e-38
2.5890391 -5.8851252 -39.579128 1.1693335e-38
2.666311 -5.8365879 -39.252705 1.1693334e-38
2.764936 -5.8365879 -39.252705 1.1601138e-38
3.609776 -5.6165581 -37.772938 1.0679185e-38
3.704684 -5.6165581 -37.772938 1.0402958e-38
3.7995911 -5.6165581 -37.772938 1.0218926e-38
4.0843129 -5.6165581 -37.772938 9.2058527e-39
4.4065418 -5.92206 -39.827534 9.2062128e-39
4.5066118 -5.92206 -39.827534 9.5746366e-39
4.5684509 -5.8729148 -39.497017 9.6668322e-39
4.610301 -5.8007069 -39.011395 9.6664721e-39
4.6986918 -5.7888451 -38.931618 9.8505032e-39
4.7769728 -5.765265 -38.773037 9.7583076e-39
4.8943291 -5.7888451 -38.931618 9.482441e-39
5.0178008 -5.8185921 -39.13168 9.2984126e-39
5.1161218 -5.8185921 -39.13168 9.2984112e-39
5.2090902 -5.8126178 -39.091503 9.9437807e-39
5.301867 -5.8066559 -39.051407 1.0312923e-38
5.394454 -5.8007069 -39.011395 1.0681346e-38
5.4924731 -5.8007069 -39.011395 1.0404759e-38
5.6019711 -5.8126178 -39.091503 9.6675539e-39
5.7119198 -5.8245778 -39.171936 9.7593894e-39
11.54784 -6.3256869 -42.542038 2.5796658e-39
11.615795 -6.304554 -42.399914 2.1197666e-39
11.618819 -6.2488852 -42.02552 2.120847e-39
11.685717 -6.2282619 -41.886822 1.7520673e-39
11.765075 -6.2145891 -41.794865 1.8442643e-39
11.870088 -6.2145891 -41.794865 1.9364614e-39
11.92275 -6.1874208 -41.612156 2.120854e-39
11.884431 -6.1139202 -41.117844 2.3052439e-39
12.03975 -6.1404452 -41.29623 2.3052453e-39
12.249799 -6.194191 -41.657684 2.2130482e-39
12.577564 -6.2009749 -41.703312 2.6740278e-39
12.682347 -6.2009749 -41.703312 2.4896351e-39
12.77314 -6.194191 -41.657684 2.3974409e-39
12.84969 -6.180666 -41.566727 2.6740278e-39
12.925907 -6.167201 -41.47617 2.8580589e-39
12.917548 -6.1139202 -41.117844 2.7662234e-39
12.950931 -6.0810852 -40.897018 2.8584191e-39
12.901256 -6.0100741 -40.419453 3.1350031e-39
13.256114 -6.1271539 -41.206844 3.4108726e-39
13.565182 -6.221417 -41.840794 3.1342843e-39
13.685349 -6.2282619 -41.886822 3.0420886e-39
13.790593 -6.2282619 -41.886822 2.949893e-39
13.880567 -6.221417 -41.840794 2.949893e-39
13.985695 -6.221417 -41.840794 2.949893e-39
14.090823 -6.221417 -41.840794 3.1342843e-39
14.211568 -6.2282619 -41.886822 3.2264799e-39
13.764863 -5.6165581 -37.772938 0
13.85977 -5.6165581 -37.772938 0
13.954678 -5.6165581 -37.772938 0
14.049584 -5.6165581 -37.772938 0
14.144492 -5.6165581 -37.772938 0
14.239399 -5.6165581 -37.772938 0
14.334307 -5.6165581 -37.772938 0
-155.6046 -97.578926 -645.34106 3.4108726e-39
-48.068806 -30.461145 -201.45567 3.410874e-39
-46.576881 -29.829826 -197.28043 3.963689e-39
-148.22786 -95.952614 -634.58539 4.885288e-39
-146.63341 -95.952614 -634.58539 5.2533516e-39
-138.13235 -91.383438 -604.367 5.5295756e-39
-111.77496 -74.768265 -494.48212 5.7136053e-39
-102.54223 -69.363335 -458.73642 5.3451829e-39
-88.582504 -60.60165 -400.79077 5.0689548e-39
-7.7997942 -6.0986829 -40.333817 3.5030724e-39
-7.6578908 -6.0665512 -40.121311 3.1342913e-39
-7.501749 -6.02213 -39.827534 3.5019948e-39
-7.3862271 -6.0095582 -39.744389 3.5016347e-39
-7.3399992 -6.053792 -40.036934 3.3168847e-39
-7.9868588 -6.6788359 -44.170677 3.3168847e-39
-7.8850241 -6.6865931 -44.221977 3.4094404e-39
-7.8560319 -6.757226 -44.68911 3.5019948e-39
-5.9570851 -5.9783559 -39.538029 3.4108754e-39
-5.839551 -5.9597888 -39.415241 3.3179623e-39
-5.5676098 -5.7802782 -38.228035 3.2254079e-39
-5.4064221 -5.7114649 -37.772938 3.1332123e-39
-5.3115149 -5.7114649 -37.772938 2.8566254e-39
-5.2166071 -5.7114649 -37.772938 2.4885631e-39
-5.1216998 -5.7114649 -37.772938 2.4885631e-39
-5.026793 -5.7114649 -37.772938 2.3970864e-39
-4.9318848 -5.7114649 -37.772938 2.489282e-39
-4.836978 -5.7114649 -37.772938 2.3970864e-39
-4.7420712 -5.7114649 -37.772938 2.5814776e-39
-4.6471629 -5.7114649 -37.772938 2.5814776e-39
-4.5522561 -5.7114649 -37.772938 2.489282e-39
-0.48385599 -7.3433118 -48.565208 5.8014625e-39
-0.360912 -7.3246269 -48.441631 5.8936582e-39
2.1339581 -6.1051502 -40.376587 1.0587352e-38
2.2354071 -6.1051502 -40.376587 1.0495157e-38
3.704684 -5.7114649 -37.772938 1.0679545e-38
3.9894061 -5.7114649 -37.772938 9.7586677e-39
4.0843129 -5.7114649 -37.772938 9.6661134e-39
4.4065418 -6.02213 -39.827534 9.5746366e-39
4.5066118 -6.02213 -39.827534 9.8505046e-39
4.5684509 -5.9721541 -39.497017 9.9427003e-39
4.624516 -5.916914 -39.13168 9.9427003e-39
4.7083201 -5.898726 -39.011395 1.0218568e-38
4.7965102 -5.886663 -38.931618 1.0310404e-38
4.9043579 -5.898726 -39.011395 1.0126733e-38
5.0126491 -5.9108391 -39.091503 9.8512249e-39
5.1108689 -5.9108391 -39.091503 9.574638e-39
5.2037468 -5.9047761 -39.051407 9.8512263e-39
5.2964339 -5.898726 -39.011395 1.0220007e-38
5.394454 -5.898726 -39.011395 1.058879e-38
5.4868512 -5.8926878 -38.971466 1.0496596e-38
5.5904918 -5.898726 -39.011395 9.9437807e-39
5.700191 -5.9108391 -39.091503 9.8515836e-39
5.7984118 -5.9108391 -39.091503 1.0035616e-38
11.492312 -6.4614549 -42.733021 3.4087076e-39
11.54784 -6.4325771 -42.542038 2.7644186e-39
11.615795 -6.411088 -42.399914 2.304518e-39
11.631658 -6.3614988 -42.07196 1.9364557e-39
11.698586 -6.3404808 -41.932953 1.6598703e-39
11.803946 -6.3404808 -41.932953 1.8439042e-39
11.896205 -6.3335061 -41.886822 2.0279367e-39
11.98826 -6.3265462 -41.840794 2.1204925e-39
12.027304 -6.291975 -41.612156 2.2126881e-39
12.105398 -6.2782521 -41.5214 2.3048837e-39
12.209723 -6.2782521 -41.5214 2.3048851e-39
12.354467 -6.2988591 -41.657684 2.4889163e-39
12.472782 -6.305758 -41.703312 2.581472e-39
12.577564 -6.305758 -41.703312 2.581472e-39
12.682347 -6.305758 -41.703312 2.4889163e-39
12.787129 -6.305758 -41.703312 2.4889149e-39
12.877808 -6.2988591 -41.657684 2.5814706e-39
12.954129 -6.2851062 -41.566727 2.7655018e-39
13.015941 -6.2645879 -41.431038 2.949893e-39
13.049044 -6.230689 -41.206844 3.0420886e-39
13.152578 -6.230689 -41.206844 3.3186755e-39
13.430536 -6.3126721 -41.749039 3.5956212e-39
13.550292 -6.3196011 -41.794865 3.1350031e-39
13.685349 -6.3335061 -41.886822 2.7658605e-39
13.775438 -6.3265462 -41.840794 2.5814706e-39
13.880567 -6.3265462 -41.840794 2.7658605e-39
13.985695 -6.3265462 -41.840794 2.9502517e-39
14.090823 -6.3265462 -41.840794 3.0424474e-39
14.195951 -6.3265462 -41.840794 3.0428075e-39
13.670002 -5.7919078 -38.304951 3.5952694e-39
13.669955 -5.7114649 -37.772938 0
13.764863 -5.7114649 -37.772938 0
13.85977 -5.7114649 -37.772938 0
13.954678 -5.7114649 -37.772938 0
14.049584 -5.7114649 -37.772938 0
14.144492 -5.7114649 -37.772938 0
14.239399 -5.7114649 -37.772938 0
14.334307 -5.7114649 -37.772938 0
14.429214 -5.7114649 -37.772938 0
14.524121 -5.7114649 -37.772938 0
14.619029 -5.7114649 -37.772938 0
-173.22021 -110.43063 -718.39856 3.5949037e-39
-165.1819 -106.41497 -692.27496 3.9633289e-39
-163.4425 -106.41497 -692.27496 4.7005352e-39
-161.70311 -106.41497 -692.27496 5.4377415e-39
-146.63341 -97.547058 -634.58539 5.5299371e-39
-131.85361 -88.679138 -576.89581 5.4370198e-39
-122.95245 -83.611763 -543.9303 5.3444627e-39
-121.58578 -83.611763 -543.9303 5.0685946e-39
-8.0114632 -6.2865992 -40.897018 3.6871049e-39
-7.7997942 -6.2000251 -40.333817 3.5949107e-39
-7.6740642 -6.1803842 -40.206043 3.4105208e-39
-7.5570841 -6.1673579 -40.121311 3.1335724e-39
-7.4562759 -6.1673579 -40.121311 3.2250492e-39
-5.7037482 -5.9179211 -38.498608 3.2257652e-39
-5.5013289 -5.8063722 -37.772938 3.1332095e-39
-5.4064221 -5.8063722 -37.772938 2.8573429e-39
-5.3115149 -5.8063722 -37.772938 2.6729516e-39
-5.2166071 -5.8063722 -37.772938 2.4889205e-39
-5.1216998 -5.8063722 -37.772938 2.4889191e-39
-5.026793 -5.8063722 -37.772938 2.3970864e-39
-4.9318848 -5.8063722 -37.772938 2.489282e-39
-4.836978 -5.8063722 -37.772938 2.5814776e-39
-4.7420712 -5.8063722 -37.772938 2.6736733e-39
-4.6471629 -5.8063722 -37.772938 2.6733145e-39
-4.5522561 -5.8063722 -37.772938 2.4885631e-39
-4.4573479 -5.8063722 -37.772938 2.3963675e-39
-3.188513 -16.303129 -106.05884 9.4849703e-39
-2.9220321 -16.303129 -106.05884 8.3797032e-39
-0.36229399 -7.4748702 -48.627232 5.9858538e-39
3.8944981 -5.8063722 -37.772938 1.0771385e-38
3.9894061 -5.8063722 -37.772938 1.0679548e-38
4.0843129 -5.8063722 -37.772938 1.0402961e-38
4.4065418 -6.1222 -39.827534 1.0311125e-38
4.5066118 -6.1222 -39.827534 1.0310405e-38
4.5684509 -6.071393 -39.497017 1.0310407e-38
4.6340408 -6.0276251 -39.21228 1.0494796e-38
4.717988 -6.009059 -39.091503 1.086322e-38
4.8063388 -5.9967451 -39.011395 1.1231643e-38
4.8993392 -5.9906068 -38.971466 1.104797e-38
4.9972572 -5.9906068 -38.971466 1.0495875e-38
5.1003971 -5.9967451 -39.011395 1.0127453e-38
5.1984162 -5.9967451 -39.011395 9.9430618e-39
5.2964339 -5.9967451 -39.011395 1.0127453e-38
5.3889322 -5.9906068 -38.971466 1.040404e-38
5.4868512 -5.9906068 -38.971466 1.0496236e-38
5.5904918 -5.9967451 -39.011395 1.040404e-38
5.700191 -6.009059 -39.091503 1.0311842e-38
5.7806072 -5.9906068 -38.971466 1.0404037e-38
11.479428 -6.561461 -42.685116 3.1324822e-39
11.534952 -6.5321689 -42.494556 2.8566142e-39
11.602874 -6.5103712 -42.352749 2.3045194e-39
11.644525 -6.4743619 -42.1185 1.7520659e-39
11.711485 -6.4529471 -41.979187 1.6598703e-39
11.81696 -6.4529471 -41.979187 1.9357397e-39
11.909307 -6.4458408 -41.932953 2.1201323e-39
11.98826 -6.431674 -41.840794 2.212328e-39
12.053651 -6.4105401 -41.703312 2.3045236e-39
12.131858 -6.3965278 -41.612156 2.304525e-39
12.223053 -6.389545 -41.566727 2.3967206e-39
12.327493 -6.389545 -41.566727 2.4889163e-39
12.445518 -6.3965278 -41.612156 2.5811119e-39
12.550073 -6.3965278 -41.612156 2.6733089e-39
12.668471 -6.4035268 -41.657684 2.5811119e-39
12.77314 -6.4035268 -41.657684 2.5811105e-39
12.877808 -6.4035268 -41.657684 2.5811105e-39
12.982475 -6.4035268 -41.657684 2.6733075e-39
13.058569 -6.389545 -41.566727 2.8576974e-39
13.163009 -6.389545 -41.566727 3.0420886e-39
13.267448 -6.389545 -41.566727 3.1342843e-39
13.415826 -6.4105401 -41.703312 3.1350031e-39
13.535434 -6.4175692 -41.749039 3.41159e-39
13.655305 -6.424614 -41.794865 3.2271988e-39
13.760317 -6.424614 -41.794865 2.674025e-39
13.86533 -6.424614 -41.794865 2.4896337e-39
13.985695 -6.431674 -41.840794 2.674025e-39
14.090823 -6.431674 -41.840794 3.0428075e-39
14.211568 -6.4387488 -41.886822 3.1350031e-39
13.628868 -5.8704352 -38.189693 3.226847e-39
13.575047 -5.8063722 -37.772938 1.6595213e-39
13.669955 -5.8063722 -37.772938 0
13.764863 -5.8063722 -37.772938 0
13.85977 -5.8063722 -37.772938 0
13.954678 -5.8063722 -37.772938 0
14.049584 -5.8063722 -37.772938 0
14.144492 -5.8063722 -37.772938 0
14.239399 -5.8063722 -37.772938 0
14.334307 -5.8063722 -37.772938 0
14.429214 -5.8063722 -37.772938 0
14.524121 -5.8063722 -37.772938 0
14.619029 -5.8063722 -37.772938 0
14.713936 -5.8063722 -37.772938 0
14.808844 -5.8063722 -37.772938 0
-180.01315 -116.63705 -746.57104 3.8707717e-39
-171.41518 -112.23566 -718.39856 4.4239469e-39
-166.46922 -110.15722 -705.09485 5.0685988e-39
-161.70311 -108.15436 -692.27496 5.3451857e-39
-146.63341 -99.141495 -634.58539 5.4373814e-39
-138.13235 -94.420471 -604.367 5.3448242e-39
-141.09297 -97.516228 -624.18231 5.252267e-39
-8.238101 -6.4869032 -41.5214 3.6871049e-39
-8.0114632 -6.3893552 -40.897018 3.5027151e-39
-7.7997942 -6.3013659 -40.333817 3.3183252e-39
-7.6821771 -6.288044 -40.248543 3.0417383e-39
-7.581049 -6.288044 -40.248543 3.1335724e-39
-7.4878368 -6.2946982 -40.291134 3.3176035e-39
-7.8758769 -6.9008002 -44.170677 3.1332123e-39
-7.764895 -6.9008002 -44.170677 3.2254079e-39
-7.50809 -6.868926 -43.966656 2.948821e-39
-7.3299079 -6.8060532 -43.564213 3.0413768e-39
-5.5676098 -5.9723792 -38.228035 3.1332095e-39
-5.4064221 -5.901279 -37.772938 2.765506e-39
-5.3115149 -5.901279 -37.772938 2.6733103e-39
-5.2166071 -5.901279 -37.772938 2.5811147e-39
-5.1216998 -5.901279 -37.772938 2.4889191e-39
-5.026793 -5.901279 -37.772938 2.489282e-39
-4.9318848 -5.901279 -37.772938 2.489282e-39
-4.836978 -5.901279 -37.772938 2.489282e-39
-4.7420712 -5.901279 -37.772938 2.6736733e-39
-4.6471629 -5.901279 -37.772938 2.6729544e-39
-4.5522561 -5.901279 -37.772938 2.4885631e-39
-4.4573479 -5.901279 -37.772938 2.3963675e-39
-4.3624411 -5.901279 -37.772938 2.5807588e-39
-3.188513 -16.569611 -106.05884 1.0221098e-38
-2.8818941 -16.342005 -104.60198 9.1169081e-39
-2.576602 -16.077 -102.90574 7.5510215e-39
3.7995911 -5.901279 -37.772938 1.1601145e-38
3.8944981 -5.901279 -37.772938 1.1692981e-38
3.9894061 -5.901279 -37.772938 1.1601145e-38
4.0843129 -5.901279 -37.772938 1.1323838e-38
4.4157801 -6.2353139 -39.91103 1.1323838e-38
4.5160589 -6.2353139 -39.91103 1.1231643e-38
4.5684509 -6.1706328 -39.497017 1.1139447e-38
4.6580272 -6.1578569 -39.415241 1.1231643e-38
4.7276959 -6.1198449 -39.171936 1.1507869e-38
4.8063388 -6.0947642 -39.011395 1.1692261e-38
4.9043579 -6.0947642 -39.011395 1.1508588e-38
5.002378 -6.0947642 -39.011395 1.0864658e-38
5.1003971 -6.0947642 -39.011395 1.0496236e-38
5.1984162 -6.0947642 -39.011395 1.040404e-38
5.2964339 -6.0947642 -39.011395 1.040404e-38
5.3834219 -6.0823011 -38.931618 1.0496236e-38
5.4812412 -6.0823011 -38.931618 1.0588431e-38
5.5790591 -6.0823011 -38.931618 1.0496236e-38
5.6595168 -6.0637002 -38.812561 1.0496594e-38
5.6931992 -5.9964609 -38.382179 1.0404399e-38
5.7896371 -5.9964609 -38.382179 1.031256e-38
11.44095 -6.646358 -42.542038 2.9480923e-39
11.522093 -6.6315379 -42.447182 2.6722257e-39
11.589982 -6.6094332 -42.305691 2.1201309e-39
11.644525 -6.5801878 -42.1185 1.7517086e-39
11.711485 -6.558423 -41.979187 1.7520673e-39
11.81696 -6.558423 -41.979187 1.9357411e-39
11.909307 -6.5511999 -41.932953 2.1201323e-39
11.98826 -6.5368018 -41.840794 2.2123294e-39
12.053651 -6.5153232 -41.703312 2.2123308e-39
12.158434 -6.5153232 -41.703312 2.2123322e-39
12.236411 -6.5010819 -41.612156 2.2123322e-39
12.327493 -6.4939852 -41.566727 2.3045278e-39
12.418375 -6.4869032 -41.5214 2.4889177e-39
12.5227 -6.4869032 -41.5214 2.7651486e-39
12.640811 -6.4939852 -41.566727 2.6733089e-39
12.75918 -6.5010819 -41.612156 2.5811133e-39
12.877808 -6.508194 -41.657684 2.5811119e-39
12.996696 -6.5153232 -41.703312 2.5811147e-39
13.101478 -6.5153232 -41.703312 2.6733075e-39
13.177395 -6.5010819 -41.612156 2.8576974e-39
13.29648 -6.508194 -41.657684 2.949893e-39
13.401148 -6.508194 -41.657684 3.0428075e-39
13.520609 -6.5153232 -41.703312 3.2271988e-39
13.625391 -6.5153232 -41.703312 3.1350031e-39
13.745229 -6.5224671 -41.749039 2.8584163e-39
13.850127 -6.5224671 -41.749039 2.674025e-39
13.970343 -6.5296268 -41.794865 2.7662206e-39
14.090823 -6.5368018 -41.840794 2.8584177e-39
13.480141 -5.901279 -37.772938 3.1346514e-39
13.575047 -5.901279 -37.772938 1.6595213e-39
13.669955 -5.901279 -37.772938 0
13.764863 -5.901279 -37.772938 0
13.85977 -5.901279 -37.772938 0
13.954678 -5.901279 -37.772938 0
14.049584 -5.901279 -37.772938 0
14.144492 -5.901279 -37.772938 0
14.239399 -5.901279 -37.772938 0
14.334307 -5.901279 -37.772938 0
14.429214 -5.901279 -37.772938 0
14.524121 -5.901279 -37.772938 0
14.619029 -5.901279 -37.772938 0
14.713936 -5.901279 -37.772938 0
14.808844 -5.901279 -37.772938 0
14.90375 -5.901279 -37.772938 0
-183.61342 -120.88313 -761.50244 3.8704144e-39
-174.71162 -116.23378 -732.21393 4.6072606e-39
-169.61015 -114.04069 -718.39856 5.1600756e-39
-161.70311 -109.89375 -692.27496 5.2522712e-39
-159.96371 -109.89375 -692.27496 5.0682387e-39
-155.3989 -107.93137 -679.9129 5.0682373e-39
-8.4437141 -6.6712551 -42.02552 3.7789404e-39
-8.238101 -6.591228 -41.5214 3.5023535e-39
-8.0114632 -6.4921122 -40.897018 3.3179637e-39
-7.7997942 -6.4027081 -40.333817 3.0417369e-39
-7.698452 -6.4027081 -40.333817 2.7651514e-39
-7.5890708 -6.3959332 -40.291134 3.1332123e-39
-7.4878368 -6.3959332 -40.291134 3.2254065e-39
-8.0978413 -7.0117831 -44.170677 3.2254079e-39
-7.9868588 -7.0117831 -44.170677 3.0410167e-39
-7.839499 -6.9793949 -43.966656 2.948821e-39
-7.7112198 -6.9633141 -43.865349 3.1332123e-39
-7.5488238 -6.9155111 -43.564213 3.1332123e-39
-7.4308639 -6.907608 -43.514427 3.0410167e-39
-7.3215308 -6.907608 -43.514427 2.9495413e-39
-7.220449 -6.9155111 -43.564213 3.0417369e-39
-5.4064221 -5.9961872 -37.772938 2.765506e-39
-5.3115149 -5.9961872 -37.772938 2.5811147e-39
-5.2166071 -5.9961872 -37.772938 2.4889191e-39
-5.1216998 -5.9961872 -37.772938 2.4889191e-39
-5.026793 -5.9961872 -37.772938 2.4889205e-39
-4.9318848 -5.9961872 -37.772938 2.4889205e-39
-4.836978 -5.9961872 -37.772938 2.5807588e-39
-4.7420712 -5.9961872 -37.772938 2.6729544e-39
-4.6471629 -5.9961872 -37.772938 2.5807588e-39
-4.5522561 -5.9961872 -37.772938 2.4885631e-39
-4.4573479 -5.9961872 -37.772938 2.5800385e-39
-4.3624411 -5.9961872 -37.772938 2.7644298e-39
-4.2675338 -5.9961872 -37.772938 2.7644298e-39
-3.5137179 -17.122257 -107.86153 1.1141972e-38
-3.1360991 -16.559332 -104.31541 1.0682074e-38
-2.8199179 -16.247732 -102.35248 9.7615586e-39
-2.5154159 -15.947642 -100.46207 8.5640944e-39
-2.2511179 -15.863928 -99.934708 7.1825991e-39
3.7995911 -5.9961872 -37.772938 1.2614577e-38
3.8944981 -5.9961872 -37.772938 1.2890444e-38
3.9894061 -5.9961872 -37.772938 1.2798608e-38
4.0843129 -5.9961872 -37.772938 1.2245434e-38
4.4738531 -6.276382 -39.538029 1.2336911e-38
4.5684509 -6.2698722 -39.497017 1.215252e-38
4.6628542 -6.2633748 -39.456085 1.1968129e-38
4.752141 -6.250421 -39.374481 1.2059966e-38
4.826118 -6.2182679 -39.171936 1.215252e-38
4.909389 -6.1991348 -39.051407 1.1968848e-38
5.002378 -6.1927829 -39.011395 1.1509308e-38
5.105628 -6.1991348 -39.051407 1.1233082e-38
5.2090902 -6.2055001 -39.091503 1.104869e-38
5.3073101 -6.2055001 -39.091503 1.0956495e-38
5.394454 -6.1927829 -39.011395 1.0956495e-38
5.4924731 -6.1927829 -39.011395 1.104833e-38
5.5962262 -6.1991348 -39.051407 1.104869e-38
5.6595168 -6.1612201 -38.812561 1.1141245e-38
5.7220402 -6.123765 -38.576618 1.0865018e-38
5.8189659 -6.123765 -38.576618 1.0588428e-38
11.428182 -6.7457099 -42.494556 2.5800301e-39
11.496459 -6.7231998 -42.352749 2.3963591e-39
11.577118 -6.7082758 -42.258739 2.0279367e-39
11.631658 -6.6786261 -42.07196 1.8435455e-39
11.711485 -6.6638989 -41.979187 1.8439042e-39
11.81696 -6.6638989 -41.979187 1.8435469e-39
11.883132 -6.6419301 -41.840794 1.9357425e-39
11.975101 -6.6346388 -41.794865 2.0279409e-39
12.053651 -6.6201062 -41.703312 2.1201366e-39
12.158434 -6.6201062 -41.703312 2.1201366e-39
12.249799 -6.6128631 -41.657684 2.0279409e-39
12.327493 -6.598424 -41.566727 2.1197792e-39
12.404847 -6.5840478 -41.47617 2.2119748e-39
12.45479 -6.5554838 -41.29623 2.6729544e-39
12.585851 -6.569736 -41.386002 2.672953e-39
12.717484 -6.5840478 -41.47617 2.5811147e-39
12.877808 -6.6128631 -41.657684 2.4889191e-39
12.996696 -6.6201062 -41.703312 2.4889191e-39
13.115844 -6.6273651 -41.749039 2.5811133e-39
13.220741 -6.6273651 -41.749039 2.6733075e-39
13.29648 -6.6128631 -41.657684 2.8580575e-39
13.401148 -6.6128631 -41.657684 3.1350045e-39
13.505816 -6.6128631 -41.657684 2.9506119e-39
13.610484 -6.6128631 -41.657684 2.674025e-39
13.715152 -6.6128631 -41.657684 2.5818294e-39
13.81982 -6.6128631 -41.657684 2.7662206e-39
13.955025 -6.6273651 -41.749039 2.8584177e-39
14.090823 -6.6419301 -41.840794 2.766222e-39
13.385233 -5.9961872 -37.772938 3.0424544e-39
13.480141 -5.9961872 -37.772938 3.0424558e-39
13.575047 -5.9961872 -37.772938 1.6595213e-39
13.669955 -5.9961872 -37.772938 0
13.764863 -5.9961872 -37.772938 0
13.85977 -5.9961872 -37.772938 0
13.954678 -5.9961872 -37.772938 0
14.049584 -5.9961872 -37.772938 0
14.144492 -5.9961872 -37.772938 0
14.239399 -5.9961872 -37.772938 0
14.334307 -5.9961872 -37.772938 0
14.429214 -5.9961872 -37.772938 0
14.524121 -5.9961872 -37.772938 0
14.619029 -5.9961872 -37.772938 0
14.713936 -5.9961872 -37.772938 0
14.808844 -5.9961872 -37.772938 0
14.90375 -5.9961872 -37.772938 0
14.998658 -5.9961872 -37.772938 0
-191.26398 -127.91298 -793.23175 4.0544469e-39
-181.70009 -122.79646 -761.50244 4.6994562e-39
-172.87189 -118.07352 -732.21393 5.2519111e-39
-167.80511 -115.84572 -718.39856 5.1597155e-39
-166.00009 -115.84572 -718.39856 4.9753242e-39
-8.3381224 -6.7768469 -42.02552 3.3176035e-39
-8.0114632 -6.5948691 -40.897018 3.3176035e-39
-7.8163538 -6.517859 -40.419453 3.1339325e-39
-7.698452 -6.5040498 -40.333817 3.0417369e-39
-7.5971098 -6.5040498 -40.333817 2.9488196e-39
-7.4878368 -6.4971671 -40.291134 2.9488182e-39
-7.3866019 -6.4971671 -40.291134 2.9488196e-39
-7.9316502 -7.0735288 -43.865349 2.948821e-39
-7.821435 -7.0735288 -43.865349 3.0410167e-39
-7.6582832 -7.0249691 -43.564213 3.1332123e-39
-7.53159 -7.0089312 -43.464752 3.3176035e-39
-7.3886428 -6.9770718 -43.267185 3.3176035e-39
-7.2799311 -6.9770718 -43.267185 3.0417369e-39
-7.1875539 -6.9929652 -43.365742 3.0417369e-39
-5.5013289 -6.091094 -37.772938 2.765506e-39
-5.4064221 -6.091094 -37.772938 2.6733103e-39
-5.3115149 -6.091094 -37.772938 2.4889191e-39
-5.2166071 -6.091094 -37.772938 2.3967234e-39
-5.1216998 -6.091094 -37.772938 2.3967234e-39
-5.026793 -6.091094 -37.772938 2.3967234e-39
-4.9318848 -6.091094 -37.772938 2.3967234e-39
-4.836978 -6.091094 -37.772938 2.4885631e-39
-4.7420712 -6.091094 -37.772938 2.4885631e-39
-4.6471629 -6.091094 -37.772938 2.4885631e-39
-4.5522561 -6.091094 -37.772938 2.3963675e-39
-4.4573479 -6.091094 -37.772938 2.5800385e-39
-4.3624411 -6.091094 -37.772938 2.6722341e-39
-4.2675338 -6.091094 -37.772938 2.6722341e-39
-4.172626 -6.091094 -37.772938 2.6722341e-39
-3.077086 -16.5049 -102.35248 1.058988e-38
-2.7678349 -16.200062 -100.46207 9.945231e-39
-2.489146 -16.03087 -99.412849 9.1169081e-39
-2.2219591 -15.906278 -98.640213 7.919804e-39
-2.1991191 -28.425106 -176.27371 5.2493677e-39
-1.693496 -27.409925 -169.97823 5.2482887e-39
-1.266413 -27.409925 -169.97823 5.6170713e-39
-0.83933002 -27.409925 -169.97823 6.0769704e-39
4.4738531 -6.3757248 -39.538029 1.3349984e-38
4.5684509 -6.3691111 -39.497017 1.3073757e-38
4.6628542 -6.3625112 -39.456085 1.2889006e-38
4.7619901 -6.3625112 -39.456085 1.2704615e-38
4.8510718 -6.3493519 -39.374481 1.279681e-38
4.9296131 -6.3231959 -39.21228 1.2704975e-38
5.0281358 -6.3231959 -39.21228 1.2521304e-38
5.1266599 -6.3231959 -39.21228 1.2245436e-38
5.225184 -6.3231959 -39.21228 1.215288e-38
5.3182311 -6.31669 -39.171936 1.1968489e-38
5.4166532 -6.31669 -39.171936 1.1968489e-38
5.5150762 -6.31669 -39.171936 1.2060684e-38
5.6134982 -6.31669 -39.171936 1.215324e-38
5.6595168 -6.258739 -38.812561 1.2430186e-38
5.7278428 -6.2270012 -38.615742 1.2153599e-38
11.390045 -6.8296142 -42.352749 2.3963591e-39
11.47094 -6.8144541 -42.258739 2.3041649e-39
11.551476 -6.7993612 -42.165142 2.0279381e-39
11.606009 -6.7693748 -41.979187 1.9357425e-39
11.698586 -6.761919 -41.932953 2.0279367e-39
11.778004 -6.7470579 -41.840794 1.8435469e-39
11.870088 -6.7396522 -41.794865 1.8435469e-39
11.96197 -6.7322621 -41.749039 2.0279381e-39
12.053651 -6.7248878 -41.703312 2.0279395e-39
12.145131 -6.7175312 -41.657684 2.0279409e-39
12.236411 -6.7101889 -41.612156 1.9357453e-39
12.300635 -6.688261 -41.47617 1.9353894e-39
12.35103 -6.6592441 -41.29623 2.027585e-39
12.427832 -6.6448302 -41.206844 2.4885631e-39
12.531366 -6.6448302 -41.206844 2.4885631e-39
12.648591 -6.65203 -41.251488 2.4885631e-39
12.821695 -6.688261 -41.47617 2.3963675e-39
13.010946 -6.7322621 -41.749039 2.3967234e-39
13.13024 -6.7396522 -41.794865 2.4889191e-39
13.235253 -6.7396522 -41.794865 2.6733103e-39
13.325639 -6.7322621 -41.749039 2.7658633e-39
13.401148 -6.7175312 -41.657684 2.8584177e-39
13.491055 -6.7101889 -41.612156 3.1350045e-39
13.595609 -6.7101889 -41.612156 3.1350031e-39
13.700163 -6.7101889 -41.612156 2.674025e-39
13.804716 -6.7101889 -41.612156 2.3974395e-39
13.924488 -6.7175312 -41.657684 2.4896351e-39
14.106324 -6.7544808 -41.886822 2.766222e-39
13.385233 -6.091094 -37.772938 2.9502588e-39
13.480141 -6.091094 -37.772938 2.9502588e-39
13.575047 -6.091094 -37.772938 1.6595199e-39
13.669955 -6.091094 -37.772938 0
13.764863 -6.091094 -37.772938 0
13.85977 -6.091094 -37.772938 0
13.954678 -6.091094 -37.772938 0
14.049584 -6.091094 -37.772938 0
14.144492 -6.091094 -37.772938 0
14.239399 -6.091094 -37.772938 0
14.334307 -6.091094 -37.772938 0
14.429214 -6.091094 -37.772938 0
14.524121 -6.091094 -37.772938 0
14.619029 -6.091094 -37.772938 0
14.713936 -6.091094 -37.772938 0
14.808844 -6.091094 -37.772938 0
14.90375 -6.091094 -37.772938 0
14.998658 -6.091094 -37.772938 0
15.093566 -6.091094 -37.772938 0
-191.26398 -129.90604 -793.23175 4.4232308e-39
-185.40825 -127.25489 -777.04333 4.8834901e-39
-183.45587 -127.25489 -777.04333 5.0675212e-39
-181.50349 -127.25489 -777.04333 5.0675198e-39
-8.0200777 -6.7048278 -40.94099 3.4097978e-39
-7.8246598 -6.6264501 -40.462406 3.3179609e-39
-7.698452 -6.605392 -40.333817 3.1332109e-39
-7.5971098 -6.605392 -40.333817 2.8573429e-39
-7.472023 -6.584466 -40.206043 2.8573415e-39
-7.3710022 -6.584466 -40.206043 2.8573443e-39
-7.9316502 -7.183744 -43.865349 2.9491812e-39
-7.821435 -7.183744 -43.865349 2.9495413e-39
-7.6407981 -7.1181388 -43.464752 2.9495413e-39
-7.497355 -7.085784 -43.267185 2.949184e-39
-7.3886428 -7.085784 -43.267185 2.8573471e-39
-7.2799311 -7.085784 -43.267185 3.0410181e-39
-5.5013289 -6.1860018 -37.772938 2.765506e-39
-5.4064221 -6.1860018 -37.772938 2.6733103e-39
-5.3115149 -6.1860018 -37.772938 2.4889191e-39
-5.2166071 -6.1860018 -37.772938 2.3967234e-39
-5.1216998 -6.1860018 -37.772938 2.3967234e-39
-5.026793 -6.1860018 -37.772938 2.3967234e-39
-4.9318848 -6.1860018 -37.772938 2.3967234e-39
-4.836978 -6.1860018 -37.772938 2.5800385e-39
-4.7420712 -6.1860018 -37.772938 2.5800385e-39
-4.6471629 -6.1860018 -37.772938 2.4878429e-39
-4.5522561 -6.1860018 -37.772938 2.5800385e-39
-4.4573479 -6.1860018 -37.772938 2.6715153e-39
-4.3624411 -6.1860018 -37.772938 2.6715153e-39
-4.2675338 -6.1860018 -37.772938 2.6715153e-39
-4.172626 -6.1860018 -37.772938 2.7637109e-39
-4.0777192 -6.1860018 -37.772938 2.6722341e-39
-3.0202529 -16.45248 -100.46207 1.0680995e-38
-2.7389281 -16.280651 -99.412849 1.0128901e-38
-2.4570689 -16.07085 -98.13176 9.3005791e-39
-2.165849 -15.746186 -96.1493 8.3800605e-39
-3.386709 -27.713287 -169.22276 6.9985652e-39
-3.203572 -29.978315 -183.05348 5.4333975e-39
-2.5822461 -28.214886 -172.28563 4.696194e-39
-2.120579 -27.837008 -169.97823 4.6039983e-39
-1.671115 -27.469118 -167.73181 4.9717019e-39
-1.244195 -27.348639 -166.99615 5.3404844e-39
-0.80346102 -26.647392 -162.7142 5.9847748e-39
4.4738531 -6.4750671 -39.538029 1.427158e-38
4.5684509 -6.4683499 -39.497017 1.408683e-38
4.6676912 -6.4683499 -39.497017 1.3810602e-38
4.7619901 -6.461648 -39.456085 1.3718046e-38
4.8611259 -6.461648 -39.456085 1.3718048e-38
4.9551282 -6.454958 -39.415241 1.3717689e-38
5.0489349 -6.4482832 -39.374481 1.3533659e-38
5.142549 -6.4416218 -39.333805 1.3441821e-38
5.2413778 -6.4416218 -39.333805 1.325743e-38
5.3457289 -6.4482832 -39.374481 1.3165234e-38
5.4843612 -6.4953022 -39.661587 1.3257428e-38
5.771296 -6.4817982 -39.579128 1.3626931e-38
11.390045 -6.936028 -42.352749 2.3045236e-39
11.47094 -6.9206319 -42.258739 2.2123294e-39
11.551476 -6.905304 -42.165142 2.0279381e-39
11.593227 -6.86728 -41.932953 2.0272179e-39
11.672875 -6.8521872 -41.840794 2.1190547e-39
11.765075 -6.8446651 -41.794865 1.8431881e-39
11.857073 -6.8371601 -41.749039 1.8435469e-39
11.96197 -6.8371601 -41.749039 2.0279367e-39
12.040463 -6.8221989 -41.657684 2.1201337e-39
12.145131 -6.8221989 -41.657684 2.0279381e-39
12.223053 -6.807303 -41.566727 2.0279409e-39
12.287251 -6.7850809 -41.431038 2.0279409e-39
12.324296 -6.7483649 -41.206844 2.027585e-39
12.427832 -6.7483649 -41.206844 2.3041719e-39
12.517819 -6.7410698 -41.162296 2.3963675e-39
12.607613 -6.7337899 -41.117844 2.3963675e-39
12.752238 -6.7556772 -41.251488 2.3967234e-39
13.025229 -6.8446651 -41.794865 2.3045278e-39
13.173623 -6.86728 -41.932953 2.4889191e-39
13.249798 -6.8521872 -41.840794 2.6733089e-39
13.325639 -6.8371601 -41.749039 2.7658619e-39
13.430536 -6.8371601 -41.749039 2.5818308e-39
13.491055 -6.814743 -41.612156 3.0428089e-39
13.580767 -6.807303 -41.566727 3.2272002e-39
13.700163 -6.814743 -41.612156 2.8584177e-39
13.804716 -6.814743 -41.612156 2.5818308e-39
13.939739 -6.8296709 -41.703312 2.5818308e-39
14.075356 -6.8446651 -41.794865 2.6740264e-39
14.180368 -6.8446651 -41.794865 2.766222e-39
14.33258 -6.86728 -41.932953 2.766222e-39
13.215372 -6.2857761 -38.382179 2.6740278e-39
13.205316 -6.2354898 -38.075123 2.6736705e-39
13.480141 -6.1860018 -37.772938 2.9502574e-39
13.575047 -6.1860018 -37.772938 1.7517156e-39
13.669955 -6.1860018 -37.772938 0
13.764863 -6.1860018 -37.772938 0
13.85977 -6.1860018 -37.772938 0
13.954678 -6.1860018 -37.772938 0
14.049584 -6.1860018 -37.772938 0
