# .PCD v.7 - Point Cloud Data file format
VERSION .7
FIELDS x y z rgb
SIZE 4 4 4 4
TYPE F F F F
COUNT 1 1 1 1
WIDTH 1064
HEIGHT 1
VIEWPOINT 0 0 0 1 0 0 0
POINTS 1064
DATA ascii
7.6907921 8.7144518 -37.772938 1.0501991e-38
7.7856989 8.7144518 -37.772938 1.1423221e-38
7.8806071 8.7144518 -37.772938 1.1791642e-38
7.9755139 8.7144518 -37.772938 1.1976032e-38
8.0704212 8.7144518 -37.772938 1.2068226e-38
-16.19166 15.323635 -67.151894 1.81647e-38
-15.910691 15.21629 -66.681473 1.81647e-38
-15.743149 15.21629 -66.681473 1.8073223e-38
-15.413642 15.058061 -65.988083 1.7981388e-38
-15.195172 15.006047 -65.760139 1.7889552e-38
-15.082042 15.058061 -65.988083 1.7889552e-38
-6.0707741 8.619545 -37.772938 1.8165776e-38
-5.9758658 8.619545 -37.772938 1.8165776e-38
-5.880959 8.619545 -37.772938 1.8165776e-38
-5.7860508 8.619545 -37.772938 1.8165776e-38
-5.691144 8.619545 -37.772938 1.8165776e-38
-5.5962372 8.619545 -37.772938 1.8349088e-38
-5.5013289 8.619545 -37.772938 1.8349088e-38
-5.4064221 8.619545 -37.772938 1.8349088e-38
-1.776608 11.553858 -50.631813 1.0044618e-38
-1.63203 11.432239 -50.098846 9.1219429e-39
-1.4982671 11.372384 -49.836548 8.1996265e-39
-1.369464 11.34269 -49.706425 7.2776702e-39
-1.2413321 11.313152 -49.576984 6.6323022e-39
-1.110979 11.254536 -49.320107 7.0010847e-39
-0.76277202 8.6971979 -38.113235 7.5542585e-39
-0.66701001 8.6971979 -38.113235 8.5684104e-39
-0.57124799 8.6971979 -38.113235 9.5825651e-39
-0.47596201 8.7059126 -38.151424 9.121587e-39
0.0047010002 12.289252 -53.854488 1.0135373e-38
0.139226 12.220114 -53.55151 1.0411957e-38
0.273011 12.185836 -53.401295 1.0319402e-38
0.40491399 12.117854 -53.103378 1.0135009e-38
0.53833997 12.117854 -53.103378 1.0595265e-38
0.67176598 12.117854 -53.103378 1.0410514e-38
1.754923 19.836761 -86.929504 1.1792006e-38
1.97334 19.836761 -86.929504 1.1791648e-38
2.2018111 19.927755 -87.328262 1.1606896e-38
2.4212289 19.927755 -87.328262 1.1422867e-38
2.6346059 19.882154 -87.128426 1.1146999e-38
1.789081 12.465569 -54.627148 1.0594188e-38
2.19297 9.9410772 -43.564213 7.2776702e-39
2.281544 9.8509083 -43.169075 7.0010833e-39
2.3900101 9.8509083 -43.169075 7.0010833e-39
2.504154 9.8732967 -43.267185 6.8174123e-39
2.6158381 9.8845291 -43.316406 6.2646001e-39
2.7215779 9.8732967 -43.267185 5.8032632e-39
2.8238721 9.8509083 -43.169075 5.5266763e-39
2.915808 9.7953787 -42.925732 5.6188719e-39
3.003346 9.7295647 -42.637314 5.8032632e-39
3.0966051 9.6861773 -42.447182 6.0794899e-39
3.1855011 9.6324844 -42.211887 6.2635197e-39
3.277029 9.5899572 -42.02552 6.723779e-39
3.3640561 9.537323 -41.794865 7.6457353e-39
3.469069 9.537323 -41.794865 8.8439183e-39
3.5780089 9.5478039 -41.840794 9.7651543e-39
3.6912501 9.5688343 -41.932953 1.0593833e-38
5.4008379 11.139104 -48.814259 1.0408719e-38
5.495307 11.082272 -48.565208 1.0039576e-38
5.6461382 11.139104 -48.814259 9.6715126e-39
6.1054258 11.082272 -48.565208 7.9223165e-39
5.6771169 10.102908 -44.273399 8.3836562e-39
5.7682352 10.067788 -44.119492 7.8301237e-39
5.8790889 10.067788 -44.119492 7.3687854e-39
5.9830089 10.056135 -44.068428 7.7375679e-39
6.0866899 10.04451 -44.017483 7.9219564e-39
6.3669572 9.9638777 -43.664131 8.3822101e-39
6.447093 9.9183807 -43.464752 8.5662412e-39
6.3620892 8.619545 -37.772938 9.8566185e-39
6.4569969 8.619545 -37.772938 1.0132485e-38
6.6575799 8.7585697 -38.382179 1.0223962e-38
6.7745061 8.7851381 -38.498608 1.003921e-38
6.8504562 8.7585697 -38.382179 9.6704294e-39
6.8366261 8.619545 -37.772938 9.2094526e-39
6.9315329 8.619545 -37.772938 8.9332273e-39
7.0264411 8.619545 -37.772938 8.4733295e-39
8.3082399 10.056135 -44.068428 7.7368449e-39
8.4189644 10.056135 -44.068428 7.1843928e-39
8.5296898 10.056135 -44.068428 7.3691442e-39
8.5907001 9.9982748 -43.814869 7.9219578e-39
7.591351 8.7233944 -38.228035 8.4744141e-39
7.5958848 8.619545 -37.772938 9.3034531e-39
7.6907921 8.619545 -37.772938 1.068566e-38
7.7856989 8.619545 -37.772938 1.1699086e-38
7.8806071 8.619545 -37.772938 1.2160062e-38
7.9755139 8.619545 -37.772938 1.2436646e-38
8.0704212 8.619545 -37.772938 1.2436646e-38
-16.078234 15.048747 -66.681473 1.8164697e-38
-15.882874 15.022438 -66.564903 1.807322e-38
-15.715626 15.022438 -66.564903 1.7981385e-38
-15.333916 14.815232 -65.646767 1.7981385e-38
-15.142865 14.789733 -65.533775 1.7889908e-38
-6.1656809 8.5246372 -37.772938 1.8165776e-38
-6.0707741 8.5246372 -37.772938 1.8165776e-38
-5.9758658 8.5246372 -37.772938 1.8165776e-38
-5.880959 8.5246372 -37.772938 1.8165776e-38
-5.7860508 8.5246372 -37.772938 1.8165776e-38
-5.691144 8.5246372 -37.772938 1.8165776e-38
-5.5962372 8.5246372 -37.772938 1.8349088e-38
-5.5013289 8.5246372 -37.772938 1.8440565e-38
-5.4064221 8.5246372 -37.772938 1.8349088e-38
-2.9937439 13.468392 -59.678875 1.0413761e-38
-2.808579 13.301601 -58.939819 8.9397069e-39
-2.6441159 13.219746 -58.57711 7.3727413e-39
-1.5021991 11.276686 -49.967354 7.3698672e-39
-1.373049 11.247166 -49.836548 6.9088877e-39
-1.244573 11.2178 -49.706425 6.5401066e-39
-0.86198598 8.6360149 -38.266457 7.2776716e-39
-0.76353699 8.610055 -38.151424 8.0152366e-39
-0.667678 8.610055 -38.151424 9.1215842e-39
-0.57182002 8.610055 -38.151424 9.8591506e-39
-0.47596201 8.610055 -38.151424 8.3840192e-39
0.13961899 12.119654 -53.702572 9.5821952e-39
0.274551 12.119654 -53.702572 9.5818351e-39
0.40661499 12.034782 -53.326504 1.0134647e-38
0.53833997 11.984427 -53.103378 1.1055883e-38
0.61357498 10.946286 -48.503342 1.0963328e-38
0.735443 10.946286 -48.503342 1.1054804e-38
0.85840499 10.960248 -48.565208 1.1423227e-38
0.98042899 10.960248 -48.565208 1.1791646e-38
2.4212289 19.708336 -87.328262 1.1515061e-38
1.656579 12.363791 -54.784348 1.1330672e-38
1.778872 12.257967 -54.315437 1.0501632e-38
1.915344 12.257967 -54.315437 9.4885632e-39
2.2971711 9.8091717 -43.464752 7.1854746e-39
2.8302901 9.7645845 -43.267185 5.8954546e-39
2.932338 9.7424431 -43.169075 5.7110648e-39
3.0236621 9.6875248 -42.925732 5.6188691e-39
3.110476 9.6224356 -42.637314 5.8947358e-39
3.196131 9.5582142 -42.352749 6.2635183e-39
3.2915609 9.5264244 -42.211887 6.7237776e-39
3.382621 9.4843655 -42.02552 7.461344e-39
3.4843681 9.4739084 -41.979187 8.8435582e-39
3.589844 9.4739084 -41.979187 1.0133577e-38
3.736516 9.5795259 -42.447182 1.1422874e-38
5.3398018 11.145051 -49.384075 1.0225049e-38
5.4638829 11.145051 -49.384075 1.0500557e-38
5.587965 11.145051 -49.384075 1.0131773e-38
5.9834018 10.960248 -48.565208 8.0141478e-39
6.1054258 10.960248 -48.565208 7.9223165e-39
6.2354031 10.974246 -48.627232 8.4754917e-39
6.3820348 11.016455 -48.814259 7.8301237e-39
6.464704 8.6621313 -38.382179 1.0133205e-38
6.561142 8.6621313 -38.382179 1.0500907e-38
6.6575799 8.6621313 -38.382179 1.0592384e-38
6.7745061 8.6884069 -38.498608 1.0591305e-38
6.8712358 8.6884069 -38.498608 1.0314718e-38
6.967967 8.6884069 -38.498608 9.9462988e-39
7.0220962 8.6360149 -38.266457 9.6707923e-39
8.5296898 9.9454107 -44.068428 7.1847515e-39
7.5103812 8.6447029 -38.304951 7.6453709e-39
7.5685539 8.6014357 -38.113235 8.4747715e-39
7.5958848 8.5246372 -37.772938 9.7647872e-39
7.6907921 8.5246372 -37.772938 1.0778212e-38
7.7856989 8.5246372 -37.772938 1.1606889e-38
7.8806071 8.5246372 -37.772938 1.216006e-38
7.9755139 8.5246372 -37.772938 1.2436646e-38
8.0704212 8.5246372 -37.772938 1.2619958e-38
-16.050125 14.855188 -66.564903 1.81647e-38
-15.855156 14.829264 -66.44873 1.8164701e-38
-15.688199 14.829264 -66.44873 1.8073225e-38
-15.255011 14.574903 -65.30896 1.8073225e-38
-15.090917 14.574903 -65.30896 1.7981389e-38
-6.1656809 8.4297304 -37.772938 1.8165776e-38
-6.0707741 8.4297304 -37.772938 1.8165776e-38
-5.9758658 8.4297304 -37.772938 1.8165776e-38
-5.880959 8.4297304 -37.772938 1.8165776e-38
-5.7860508 8.4297304 -37.772938 1.8165776e-38
-5.691144 8.4297304 -37.772938 1.8349088e-38
-5.5962372 8.4297304 -37.772938 1.8440565e-38
-5.5013289 8.4297304 -37.772938 1.8440565e-38
-5.4064221 8.4297304 -37.772938 1.8440565e-38
-3.416816 13.816533 -61.91077 1.1242448e-38
-3.188673 13.509011 -60.532787 1.0781467e-38
-2.979733 13.256112 -59.399567 9.5840001e-39
-2.808579 13.153511 -58.939819 7.7411637e-39
-2.6441159 13.072566 -58.57711 6.820285e-39
-2.4892781 13.032466 -58.397427 7.1887102e-39
-1.5021991 11.151139 -49.967354 7.0932803e-39
-1.373049 11.121947 -49.836548 6.9088877e-39
-1.0687701 9.5259733 -42.685116 7.0010833e-39
-0.86198598 8.5398674 -38.266457 8.0152366e-39
-0.76507002 8.5312929 -38.228035 8.9368328e-39
-0.66834801 8.5227365 -38.189693 9.7665949e-39
-0.57239401 8.5227365 -38.189693 9.7665935e-39
-0.476439 8.5227365 -38.189693 7.1851158e-39
0.138641 11.900796 -53.326504 8.936823e-39
0.27262801 11.900796 -53.326504 9.3974424e-39
0.40491399 11.851002 -53.103378 1.0595265e-38
0.491707 10.824418 -48.503342 1.1331751e-38
0.61357498 10.824418 -48.503342 1.1423587e-38
0.735443 10.824418 -48.503342 1.1422867e-38
0.85840499 10.838224 -48.565208 1.1515062e-38
0.98042899 10.838224 -48.565208 1.1975679e-38
1.666169 12.296914 -55.101479 1.1238477e-38
1.794229 12.226141 -54.784348 1.0225046e-38
1.931879 12.226141 -54.784348 9.0279438e-39
3.3025451 9.4517994 -42.352749 7.0000043e-39
3.3976221 9.4203634 -42.211887 7.3684267e-39
3.5036819 9.4203634 -42.211887 8.7506423e-39
3.629864 9.4728737 -42.447182 1.0225412e-38
4.0908661 8.6441183 -38.733593 1.0317964e-38
4.1881871 8.6441183 -38.733593 1.0501636e-38
5.5067372 11.107409 -49.7714 1.0684948e-38
5.6317921 11.107409 -49.7714 1.0315806e-38
5.6679368 10.935866 -49.002731 1.0039576e-38
5.7540331 10.865944 -48.689415 9.4871213e-39
5.8688641 10.852066 -48.627232 8.9346664e-39
5.9834018 10.838224 -48.565208 8.1059847e-39
6.1054258 10.838224 -48.565208 8.1981832e-39
6.2354031 10.852066 -48.627232 8.6595242e-39
9.8965836 13.112913 -58.757904 1.0409794e-38
10.059741 13.133181 -58.848721 1.0685299e-38
8.5296898 9.8346853 -44.068428 7.6457268e-39
7.5103812 8.5484591 -38.304951 7.6457254e-39
7.5837359 8.5227365 -38.189693 8.3829318e-39
7.5958848 8.4297304 -37.772938 9.9488155e-39
7.6907921 8.4297304 -37.772938 1.0869687e-38
7.7856989 8.4297304 -37.772938 1.1422857e-38
7.8806071 8.4297304 -37.772938 1.2251538e-38
7.9755139 8.4297304 -37.772938 1.2712156e-38
8.0704212 8.4297304 -37.772938 1.2711796e-38
8.2720118 8.5398674 -38.266457 1.2711438e-38
8.4104223 8.5829983 -38.459721 1.2711438e-38
8.5070553 8.5829983 -38.459721 1.2711438e-38
-16.022114 14.662306 -66.44873 1.8164344e-38
-15.800008 14.611307 -66.217606 1.825654e-38
-15.633631 14.611307 -66.217606 1.8256541e-38
-15.228889 14.386132 -65.197128 1.8256541e-38
-15.065077 14.386132 -65.197128 1.8165064e-38
-6.1656809 8.3348227 -37.772938 1.8349088e-38
-6.0707741 8.3348227 -37.772938 1.8349088e-38
-5.9758658 8.3348227 -37.772938 1.8349088e-38
-5.880959 8.3348227 -37.772938 1.8349088e-38
-5.7860508 8.3348227 -37.772938 1.8349088e-38
-5.691144 8.3348227 -37.772938 1.8349088e-38
-5.5962372 8.3348227 -37.772938 1.862388e-38
-5.5013289 8.3348227 -37.772938 1.862388e-38
-5.4064221 8.3348227 -37.772938 1.862388e-38
-3.572372 13.660977 -61.91077 1.1336439e-38
-3.340766 13.356918 -60.532787 1.0413761e-38
-3.143692 13.168497 -59.678875 9.9527798e-39
-2.979733 13.106867 -59.399567 8.2939787e-39
-2.817302 13.04581 -59.12286 7.0036014e-39
-2.652277 12.96528 -58.757904 6.8195689e-39
-2.4892781 12.885738 -58.397427 7.279831e-39
-2.3389621 12.866005 -58.307999 7.7400917e-39
-1.303731 9.5689077 -43.365742 7.0932803e-39
-1.185321 9.4932222 -43.022736 7.3698658e-39
-1.066379 9.3976526 -42.589622 7.8308454e-39
-0.86285299 8.4522142 -38.304951 8.84464e-39
-0.76583898 8.4437199 -38.266457 9.6736804e-39
-0.66969103 8.4437199 -38.266457 1.0226856e-38
-0.57296801 8.4352427 -38.228035 8.5673314e-39
0.0043270001 10.939455 -49.576984 8.5680433e-39
0.12626299 10.716201 -48.565208 9.3052454e-39
0.24828599 10.716201 -48.565208 1.004209e-38
0.37031001 10.716201 -48.565208 1.1055164e-38
0.49233401 10.716201 -48.565208 1.114664e-38
0.61435801 10.716201 -48.565208 1.1054085e-38
0.73638099 10.716201 -48.565208 1.1238118e-38
0.85840499 10.716201 -48.565208 1.1883126e-38
1.6758699 12.229259 -55.422302 1.0778219e-38
1.804615 12.158468 -55.101479 9.5800386e-39
1.9430619 12.158468 -55.101479 8.382936e-39
3.462887 9.4932222 -43.022736 7.6442947e-39
3.5709851 9.4932222 -43.022736 8.6580851e-39
4.099206 8.5642214 -38.812561 1.0593829e-38
4.2010078 8.5729609 -38.852165 1.0961534e-38
5.521172 11.011142 -49.901863 1.1144486e-38
5.6838002 11.083775 -50.231033 1.0867539e-38
5.756846 10.982355 -49.7714 1.0223247e-38
5.7761931 10.784983 -48.876923 9.5789554e-39
5.8688641 10.729887 -48.627232 9.0268592e-39
5.9834018 10.716201 -48.565208 8.2900145e-39
6.1054258 10.716201 -48.565208 8.5666027e-39
6.2593851 10.771155 -48.814259 9.1194192e-39
7.5179439 8.4607267 -38.343529 8.0134276e-39
7.5989799 8.4437199 -38.266457 8.3818499e-39
7.6643162 8.4099112 -38.113235 9.6718671e-39
7.6907921 8.3348227 -37.772938 1.0869328e-38
7.7856989 8.3348227 -37.772938 1.1882756e-38
7.8806071 8.3348227 -37.772938 1.2619964e-38
7.9755139 8.3348227 -37.772938 1.308022e-38
8.0704212 8.3348227 -37.772938 1.3080223e-38
8.3053999 8.4778013 -38.42091 1.308022e-38
8.4984713 8.4778013 -38.42091 1.3264614e-38
-15.994201 14.470096 -66.33297 1.8164345e-38
-15.800008 14.44493 -66.217606 1.8256181e-38
-15.633631 14.44493 -66.217606 1.8348018e-38
-15.228889 14.22232 -65.197128 1.8348019e-38
-15.065077 14.22232 -65.197128 1.8256541e-38
-6.1656809 8.2399158 -37.772938 1.8349088e-38
-6.0707741 8.2399158 -37.772938 1.8349088e-38
-5.9758658 8.2399158 -37.772938 1.8349088e-38
-5.880959 8.2399158 -37.772938 1.8349088e-38
-5.7860508 8.2399158 -37.772938 1.8349088e-38
-5.691144 8.2399158 -37.772938 1.8349088e-38
-5.5962372 8.2399158 -37.772938 1.862388e-38
-5.5013289 8.2399158 -37.772938 1.862388e-38
-5.4064221 8.2399158 -37.772938 1.8440568e-38
-3.746202 13.571626 -62.214252 1.1429355e-38
-3.5378561 13.374935 -61.312595 1.1060927e-38
-3.335464 13.183865 -60.436703 1.0138607e-38
-3.138772 12.998177 -59.58548 9.1240967e-39
-2.9843891 12.977867 -59.492378 7.4645796e-39
-2.8260779 12.937437 -59.307045 6.6348217e-39
-2.6604891 12.857329 -58.939819 6.9106926e-39
-2.504643 12.817646 -58.757904 7.3713106e-39
-2.3389621 12.719501 -58.307999 7.7393742e-39
-2.1824329 12.661333 -58.041344 7.6471772e-39
-1.53388 9.5359755 -43.714264 7.2780345e-39
-1.412691 9.4599485 -43.365742 7.3698686e-39
-1.293419 9.3851242 -43.022736 7.3705861e-39
-1.173389 9.2906427 -42.589622 7.7390099e-39
-1.062812 9.2595701 -42.447182 8.6598872e-39
-0.95616102 9.2595701 -42.447182 9.5818435e-39
0.0042389999 10.594177 -48.565208 9.0286613e-39
0.12626299 10.594177 -48.565208 1.0226123e-38
0.24828599 10.594177 -48.565208 1.0777856e-38
0.37031001 10.594177 -48.565208 1.1054084e-38
0.49233401 10.594177 -48.565208 1.0408717e-38
4.0139608 8.4926739 -38.931618 1.0318678e-38
4.1033888 8.4753418 -38.852165 1.0593826e-38
4.209599 8.4926739 -38.931618 1.1329235e-38
5.4923782 10.828989 -49.641621 1.1420351e-38
5.617106 10.828989 -49.641621 1.1327437e-38
5.6899061 10.731052 -49.192665 1.0499112e-38
5.7761931 10.662175 -48.876923 9.8551808e-39
5.876369 10.621272 -48.689415 9.2112477e-39
5.991044 10.607707 -48.627232 8.474763e-39
6.1132231 10.607707 -48.627232 8.9346636e-39
7.5255232 8.372817 -38.382179 9.1183318e-39
7.6066251 8.3559704 -38.304951 8.8417463e-39
7.6796908 8.3308268 -38.189693 9.5789512e-39
7.6907921 8.2399158 -37.772938 1.1237392e-38
7.7856989 8.2399158 -37.772938 1.2527051e-38
7.8806071 8.2399158 -37.772938 1.3264616e-38
7.9755139 8.2399158 -37.772938 1.3724515e-38
8.0704212 8.2399158 -37.772938 1.3632319e-38
8.3137894 8.3897324 -38.459721 1.3447926e-38
-15.994201 14.303429 -66.33297 1.8164344e-38
-15.800008 14.278553 -66.217606 1.825654e-38
-15.633631 14.278553 -66.217606 1.8348375e-38
-15.228889 14.058507 -65.197128 1.8348016e-38
-15.065077 14.058507 -65.197128 1.825654e-38
-6.1656809 8.1450081 -37.772938 1.8349088e-38
-6.0707741 8.1450081 -37.772938 1.8349088e-38
-5.9758658 8.1450081 -37.772938 1.8349088e-38
-5.880959 8.1450081 -37.772938 1.8349088e-38
-5.7860508 8.1450081 -37.772938 1.8349088e-38
-5.691144 8.1450081 -37.772938 1.8349088e-38
-5.5962372 8.1450081 -37.772938 1.8349091e-38
-5.5013289 8.1450081 -37.772938 1.8349091e-38
-5.4064221 8.1450081 -37.772938 1.8349091e-38
-3.928194 13.503566 -62.623558 1.0875825e-38
-3.721875 13.328195 -61.810265 1.0323004e-38
-3.5208471 13.157321 -61.017826 1.0507751e-38
-3.31442 12.949792 -60.055397 9.9545763e-39
-3.133868 12.828387 -59.492378 8.4790875e-39
-2.9843891 12.828387 -59.492378 6.9117659e-39
-2.8260779 12.788424 -59.307045 6.3582362e-39
-2.668751 12.748709 -59.12286 6.9106926e-39
-2.512398 12.709239 -58.939819 7.2791163e-39
-2.3389621 12.572999 -58.307999 7.5549844e-39
-1.638073 9.3937855 -43.564213 7.4627859e-39
-1.526868 9.383049 -43.514427 7.0932831e-39
-1.40948 9.3297367 -43.267185 7.3698672e-39
-1.291959 9.2665558 -42.974178 7.8308454e-39
-1.173389 9.1836329 -42.589622 8.1996265e-39
-1.062812 9.1529188 -42.447182 9.3056139e-39
-0.95616102 9.1529188 -42.447182 1.0134656e-38
-0.118541 10.539369 -48.876923 8.660599e-39
0.0042500002 10.498937 -48.689415 9.5818351e-39
0.12626299 10.472154 -48.565208 1.0133567e-38
0.24828599 10.472154 -48.565208 1.0317238e-38
3.9281919 8.4206848 -39.051407 9.7655047e-39
4.0180702 8.4034472 -38.971466 1.0410154e-38
4.1159892 8.4034472 -38.971466 1.0869694e-38
4.2139068 8.4034472 -38.971466 1.160582e-38
4.3251071 8.4293308 -39.091503 1.1512545e-38
5.5807261 10.634933 -49.320107 1.1235598e-38
5.7046471 10.634933 -49.320107 1.0775698e-38
5.7985229 10.580113 -49.06588 1.0224322e-38
5.8989992 10.539369 -48.876923 9.1197723e-39
6.0063848 10.51238 -48.751759 8.3832863e-39
6.1210399 10.498937 -48.689415 9.1194122e-39
7.5255232 8.2763796 -38.382179 1.0316515e-38
7.614285 8.2680445 -38.343529 9.5789512e-39
7.6874018 8.2431412 -38.228035 9.7626236e-39
7.7756462 8.2348728 -38.189693 1.1236673e-38
7.7856989 8.1450081 -37.772938 1.280292e-38
7.8806071 8.1450081 -37.772938 1.3816712e-38
7.9755139 8.1450081 -37.772938 1.4001463e-38
8.1676559 8.2431412 -38.228035 1.3817072e-38
8.3053999 8.2847309 -38.42091 1.3816712e-38
8.4899044 8.2763796 -38.382179 1.3356813e-38
8.4500513 8.1450081 -37.772938 1.3172421e-38
8.5449581 8.1450081 -37.772938 1.298839e-38
-16.022114 14.161434 -66.44873 1.81647e-38
-15.827534 14.136763 -66.33297 1.8256538e-38
-15.660868 14.136763 -66.33297 1.8348372e-38
-15.307524 13.96644 -65.533775 1.8348374e-38
-15.142865 13.96644 -65.533775 1.8348372e-38
-6.1656809 8.0501003 -37.772938 1.8349088e-38
-6.0707741 8.0501003 -37.772938 1.8349088e-38
-5.9758658 8.0501003 -37.772938 1.8349088e-38
-5.880959 8.0501003 -37.772938 1.8349088e-38
-5.7860508 8.0501003 -37.772938 1.8349088e-38
-5.691144 8.0501003 -37.772938 1.8349088e-38
-5.5962372 8.0501003 -37.772938 1.8165779e-38
-5.5013289 8.0501003 -37.772938 1.8165779e-38
-5.4064221 8.0501003 -37.772938 1.8165779e-38
-3.8898079 13.2158 -62.0116 1.0046063e-38
-3.6978631 13.087906 -61.411488 9.3088523e-39
-3.509598 12.962462 -60.82288 9.8620233e-39
-3.29881 12.738621 -59.772564 9.4932394e-39
-3.133868 12.678908 -59.492378 7.9259151e-39
-2.9750919 12.63941 -59.307045 6.6348217e-39
-2.817302 12.600158 -59.12286 6.2660406e-39
-2.668751 12.600158 -59.12286 7.0025294e-39
-2.512398 12.561148 -58.939819 7.371312e-39
-1.7535501 9.3163052 -43.714264 7.4631475e-39
-1.63247 9.2525673 -43.415192 7.3705903e-39
-1.523386 9.2525673 -43.415192 7.1854788e-39
-1.4078799 9.2105579 -43.218075 7.5542585e-39
-1.2876 9.1276731 -42.829159 8.2921795e-39
-1.172078 9.0664825 -42.542038 8.6602431e-39
-1.062812 9.0462666 -42.447182 9.8584262e-39
-0.95616102 9.0462666 -42.447182 1.0410524e-38
-0.849509 9.0462666 -42.447182 1.0686751e-38
-0.88609397 10.790561 -50.631813 8.9350335e-39
-0.118541 10.416562 -48.876923 8.2921767e-39
0.0042500002 10.3766 -48.689415 9.0286613e-39
0.12626299 10.350129 -48.565208 9.2116106e-39
0.24924 10.389887 -48.751759 9.8562598e-39
3.8418939 8.3482523 -39.171936 9.3956417e-39
3.9281919 8.322566 -39.051407 1.0133207e-38
4.0263119 8.322566 -39.051407 1.0686022e-38
4.1244321 8.322566 -39.051407 1.1146281e-38
4.2225509 8.322566 -39.051407 1.1790211e-38
4.3295522 8.339673 -39.13168 1.16051e-38
5.5807261 10.511012 -49.320107 1.1052286e-38
5.7046471 10.511012 -49.320107 1.0776777e-38
5.8135061 10.483852 -49.192665 1.0317235e-38
5.9218049 10.456832 -49.06588 8.9360999e-39
6.0218058 10.416562 -48.876923 8.6598732e-39
6.136735 10.403207 -48.814259 9.5803903e-39
6.275476 10.429951 -48.939747 9.9477337e-39
7.5255232 8.1799412 -38.382179 1.1514341e-38
7.6219611 8.1799412 -38.382179 1.0592027e-38
7.7106261 8.1717033 -38.343529 1.0315439e-38
7.791275 8.1552782 -38.266457 1.1144479e-38
7.8874221 8.1552782 -38.266457 1.2527053e-38
7.9835701 8.1552782 -38.266457 1.3817433e-38
8.0716047 8.14709 -38.228035 1.409402e-38
8.2254648 8.2047539 -38.498608 1.3817791e-38
8.347517 8.2297173 -38.615742 1.3909986e-38
8.4789391 8.2632399 -38.773037 1.3909986e-38
8.4899044 8.1799412 -38.382179 1.3541204e-38
8.4500513 8.0501003 -37.772938 1.3449368e-38
8.5449581 8.0501003 -37.772938 1.3357173e-38
8.6398659 8.0501003 -37.772938 1.3266056e-38
-16.050125 14.018942 -66.564903 1.8164697e-38
-15.827534 13.970096 -66.33297 1.8256894e-38
-15.660868 13.970096 -66.33297 1.8256893e-38
-15.360399 13.849456 -65.760139 1.8348371e-38
-15.195172 13.849456 -65.760139 1.8348372e-38
-6.1656809 7.955194 -37.772938 1.8165776e-38
-6.0707741 7.955194 -37.772938 1.8165776e-38
-5.9758658 7.955194 -37.772938 1.8349088e-38
-5.880959 7.955194 -37.772938 1.8349088e-38
-5.7860508 7.955194 -37.772938 1.8440565e-38
-5.691144 7.955194 -37.772938 1.8349088e-38
-5.5962372 7.955194 -37.772938 1.8165779e-38
-5.5013289 7.955194 -37.772938 1.8073943e-38
-3.8834829 13.038756 -61.91077 9.6765586e-39
-3.6859729 12.892017 -61.214024 9.399969e-39
-3.498421 12.768846 -60.629177 9.7687501e-39
-3.29881 12.588438 -59.772564 8.8478728e-39
-3.133868 12.529429 -59.492378 7.6489709e-39
-2.9750919 12.490397 -59.307045 6.6348217e-39
-2.8260779 12.490397 -59.307045 6.266042e-39
-2.6770649 12.490397 -59.307045 7.0025309e-39
-2.5202 12.451607 -59.12286 7.3709546e-39
-1.7455339 9.1643829 -43.514427 7.3705931e-39
-1.63061 9.133069 -43.365742 7.1862004e-39
-1.5181921 9.1123123 -43.267185 7.2780345e-39
-1.403103 9.0710802 -43.071407 8.0152366e-39
-1.284709 8.999815 -42.733021 8.9371859e-39
-1.170769 8.9495926 -42.494556 9.3978039e-39
-1.062812 8.9396152 -42.447182 1.0502714e-38
-0.95616102 8.9396152 -42.447182 1.0686389e-38
-0.99479097 10.468452 -49.706425 1.0686389e-38
-0.88609397 10.663344 -50.631813 8.4744113e-39
-0.76090199 10.69178 -50.76683 7.7375679e-39
-0.37130401 10.495857 -49.836548 7.9233969e-39
-0.241348 10.293755 -48.876923 7.4624174e-39
-0.118541 10.293755 -48.876923 8.2918179e-39
0.0042440002 10.241168 -48.627232 8.5673244e-39
0.12626299 10.228106 -48.565208 8.8428309e-39
0.24924 10.267394 -48.751759 1.0132131e-38
3.7319529 8.2244463 -39.051407 9.4864024e-39
3.826149 8.2160196 -39.011395 9.9477379e-39
3.940316 8.2498302 -39.171936 1.0685303e-38
4.0470662 8.26684 -39.252705 1.1238477e-38
4.1456909 8.26684 -39.252705 1.160618e-38
4.2399459 8.2583265 -39.21228 1.1790211e-38
4.3654451 8.3096733 -39.456085 1.1698016e-38
5.595222 10.414071 -49.448212 1.1053006e-38
5.7194638 10.414071 -49.448212 1.0684583e-38
5.828567 10.387092 -49.320107 9.8566171e-39
5.944787 10.373654 -49.256302 8.6591529e-39
6.0685468 10.373654 -49.256302 9.1204912e-39
6.1525111 10.306986 -48.939747 1.0225758e-38
6.3242488 10.387092 -49.320107 1.0409069e-38
7.4591622 8.11623 -38.537575 1.2344101e-38
7.5255232 8.0835028 -38.382179 1.2251545e-38
7.6219611 8.0835028 -38.382179 1.1698373e-38
7.718399 8.0835028 -38.382179 1.1605817e-38
7.814837 8.0835028 -38.382179 1.1789848e-38
7.9112749 8.0835028 -38.382179 1.261925e-38
8.0320034 8.1080236 -38.498608 1.3817433e-38
8.1287346 8.1080236 -38.498608 1.4186576e-38
8.275671 8.1575127 -38.733593 1.4094379e-38
8.3729935 8.1575127 -38.733593 1.4094378e-38
8.470314 8.1575127 -38.733593 1.4002182e-38
8.4899044 8.0835028 -38.382179 1.3909986e-38
8.4500513 7.955194 -37.772938 1.3725955e-38
8.5449581 7.955194 -37.772938 1.363376e-38
8.6398659 7.955194 -37.772938 1.3726674e-38
8.7347727 7.955194 -37.772938 1.3450447e-38
-16.078234 13.875952 -66.681473 1.8164697e-38
-15.855156 13.827518 -66.44873 1.8256893e-38
-15.688199 13.827518 -66.44873 1.8256893e-38
-15.440401 13.755501 -66.102646 1.8348369e-38
-15.274314 13.755501 -66.102646 1.8348369e-38
-6.1656809 7.8602862 -37.772938 1.8165776e-38
-6.0707741 7.8602862 -37.772938 1.8165776e-38
-5.9758658 7.8602862 -37.772938 1.8349088e-38
-5.880959 7.8602862 -37.772938 1.8349088e-38
-5.7860508 7.8602862 -37.772938 1.8440565e-38
-5.691144 7.8602862 -37.772938 1.8349088e-38
-5.5962372 7.8602862 -37.772938 1.8165779e-38
-5.5013289 7.8602862 -37.772938 1.8165779e-38
-3.8834829 12.883201 -61.91077 9.952784e-39
-3.6859729 12.738213 -61.214024 1.0045338e-38
-3.5208471 12.697385 -61.017826 9.8609457e-39
-3.346086 12.61651 -60.629177 8.3865359e-39
-3.894516 15.384793 -73.932274 7.3723868e-39
-3.708755 15.384793 -73.932274 6.6344658e-39
-3.522995 15.384793 -73.932274 6.2656847e-39
-1.626904 9.0036001 -43.267185 7.2783947e-39
-1.51475 8.9831839 -43.169075 7.3709476e-39
-1.398357 8.9325457 -42.925732 8.3843779e-39
-1.283269 8.8824759 -42.685116 9.3056083e-39
-1.170769 8.8428221 -42.494556 1.0134289e-38
-1.062812 8.8329639 -42.447182 1.0686745e-38
-1.0255851 10.663753 -51.245117 1.0409801e-38
-0.88964301 10.578329 -50.83461 8.4740526e-39
-0.76191801 10.578329 -50.83461 8.1056288e-39
-0.63419199 10.578329 -50.83461 8.0145136e-39
-0.37033501 10.343562 -49.706425 7.3702218e-39
-0.24259301 10.223443 -49.129192 7.4620587e-39
-0.118541 10.170948 -48.876923 8.5680461e-39
0.0042610001 10.157908 -48.814259 8.9353881e-39
0.126424 10.118989 -48.627232 9.3956459e-39
3.652565 8.1682148 -39.252705 9.6707937e-39
3.7319529 8.1263266 -39.051407 9.7629893e-39
3.8418939 8.1514082 -39.171936 1.0408356e-38
3.948441 8.1682148 -39.252705 1.1053725e-38
4.0722561 8.2190542 -39.497017 1.1606539e-38
4.171494 8.2190542 -39.497017 1.1790572e-38
4.279613 8.2361422 -39.579128 1.1698376e-38
5.4709792 10.289829 -49.448212 1.1790572e-38
5.6024981 10.303209 -49.512512 1.1145202e-38
5.726902 10.303209 -49.512512 1.0592746e-38
5.851305 10.303209 -49.512512 9.6711482e-39
6.8470359 10.692534 -51.38343 9.9480953e-39
7.3623338 8.0194016 -38.537575 1.2250825e-38
7.4516201 8.0112925 -38.498608 1.2619608e-38
7.5331168 7.9951239 -38.42091 1.2896193e-38
7.629652 7.9951239 -38.42091 1.2619608e-38
7.7339921 8.0032005 -38.459721 1.2711805e-38
7.8306251 8.0032005 -38.459721 1.2804e-38
7.9594169 8.0356674 -38.615742 1.3172784e-38
8.0975046 8.0766239 -38.812561 1.3910351e-38
8.1950235 8.0766239 -38.812561 1.4555719e-38
8.3010054 8.0848656 -38.852165 1.4555717e-38
8.3986244 8.0848656 -38.852165 1.4186935e-38
8.4962425 8.0848656 -38.852165 1.4002544e-38
8.5676346 8.0601912 -38.733593 1.4186935e-38
8.4500513 7.8602862 -37.772938 1.3725957e-38
8.5449581 7.8602862 -37.772938 1.363376e-38
8.6398659 7.8602862 -37.772938 1.4002542e-38
8.7347727 7.8602862 -37.772938 1.4002542e-38
-16.10644 13.732459 -66.798462 1.8164697e-38
-15.910691 13.708409 -66.681473 1.8256893e-38
-15.743149 13.708409 -66.681473 1.8256893e-38
-15.467255 13.613047 -66.217606 1.8348727e-38
-15.300878 13.613047 -66.217606 1.8348368e-38
-6.1656809 7.765378 -37.772938 1.8165776e-38
-6.0707741 7.765378 -37.772938 1.8165776e-38
-5.9758658 7.765378 -37.772938 1.8349088e-38
-5.880959 7.765378 -37.772938 1.8349088e-38
-5.7860508 7.765378 -37.772938 1.8440565e-38
-5.691144 7.765378 -37.772938 1.8440565e-38
-5.5962372 7.765378 -37.772938 1.8349091e-38
-5.5013289 7.765378 -37.772938 1.8349091e-38
-3.9326971 15.348042 -74.657104 7.1879969e-39
-3.7304859 15.288089 -74.365471 6.5426303e-39
-3.543637 15.288089 -74.365471 6.2656861e-39
-1.626904 8.8948879 -43.267185 7.3705917e-39
-1.5096149 8.844635 -43.022736 7.7390099e-39
-1.393643 8.7949457 -42.781036 8.8446358e-39
-1.278968 8.7458124 -42.542038 9.5811148e-39
-1.169464 8.7263117 -42.447182 1.0686739e-38
-1.097057 9.0074816 -43.814869 1.0870054e-38
-0.896828 10.534996 -51.245117 8.7502779e-39
-0.76395798 10.478583 -50.970715 8.1978244e-39
-0.63419199 10.450603 -50.83461 7.8297622e-39
-0.50244099 10.367552 -50.430626 8.1067106e-39
-0.37033501 10.218671 -49.706425 7.2776688e-39
-0.24480499 10.19206 -49.576984 7.829765e-39
-0.119926 10.165586 -49.448212 8.6598844e-39
3.6638961 8.0946255 -39.374481 9.8562626e-39
3.7473271 8.0612783 -39.21228 1.0132129e-38
3.8617589 8.0946255 -39.374481 1.0684943e-38
3.973016 8.1198149 -39.497017 1.1329593e-38
4.1020422 8.1792078 -39.785915 1.1790211e-38
4.2020068 8.1792078 -39.785915 1.1882407e-38
4.3382378 8.2481585 -40.121311 1.1882407e-38
6.8841982 10.620762 -51.662312 1.0407634e-38
7.280242 7.938643 -38.615742 1.2250464e-38
7.3548889 7.9145622 -38.498608 1.2250465e-38
7.4440932 7.9065681 -38.459721 1.2711442e-38
7.5331168 7.8985891 -38.42091 1.2988387e-38
7.6373591 7.9065681 -38.459721 1.2804355e-38
7.7339921 7.9065681 -38.459721 1.2896192e-38
7.8863869 7.9628711 -38.733593 1.326498e-38
8.0409689 8.0199814 -39.011395 1.3541928e-38
8.1389875 8.0199814 -39.011395 1.4094743e-38
8.2370062 8.0199814 -39.011395 1.4647916e-38
8.3264942 8.0117722 -38.971466 1.4648276e-38
8.4244127 8.0117722 -38.971466 1.4279132e-38
8.5049219 7.9954052 -38.891853 1.4002545e-38
8.5938625 7.987247 -38.852165 1.4095099e-38
8.5518589 7.8589368 -38.228035 1.3818152e-38
8.5449581 7.765378 -37.772938 1.3633761e-38
8.6398659 7.765378 -37.772938 1.4094738e-38
8.7347727 7.765378 -37.772938 1.4186933e-38
-16.134747 13.588463 -66.915855 1.8164698e-38
-15.938604 13.564623 -66.798462 1.8256893e-38
-15.770768 13.564623 -66.798462 1.8256893e-38
-15.440401 13.423325 -66.102646 1.8348727e-38
-15.274314 13.423325 -66.102646 1.8348369e-38
-6.1656809 7.6704712 -37.772938 1.8165776e-38
-6.0707741 7.6704712 -37.772938 1.8165776e-38
-5.9758658 7.6704712 -37.772938 1.8349088e-38
-5.880959 7.6704712 -37.772938 1.8349088e-38
-5.7860508 7.6704712 -37.772938 1.8440565e-38
-5.691144 7.6704712 -37.772938 1.8440565e-38
-5.5962372 7.6704712 -37.772938 1.8440568e-38
-3.9559669 15.250168 -75.098862 7.0036084e-39
-3.745115 15.160461 -74.657104 6.6344686e-39
-3.5505719 15.130793 -74.511002 6.2656875e-39
-3.3765731 15.190246 -74.80378 6.9103366e-39
-1.623215 8.7662535 -43.169075 7.5549816e-39
-1.5045151 8.7070217 -42.877392 8.0152366e-39
-1.388961 8.6582699 -42.637314 9.1208625e-39
-1.276116 8.6196604 -42.447182 9.8569814e-39
-1.169464 8.6196604 -42.447182 1.1331388e-38
-1.097057 8.8973932 -43.814869 1.1054444e-38
-1.028353 10.434325 -51.38343 1.0316523e-38
-0.899248 10.434325 -51.38343 9.3027315e-39
-0.77014399 10.434325 -51.38343 8.4736925e-39
-0.636742 10.36439 -51.03904 7.8290419e-39
-0.37033501 10.09378 -49.706425 7.4613412e-39
3.59096 8.0539951 -39.661587 9.4881975e-39
3.67149 8.0122643 -39.456085 9.7644243e-39
3.7667229 8.0039701 -39.415241 1.0132488e-38
3.865757 8.0039701 -39.415241 1.0868615e-38
4.0020771 8.0792427 -39.785915 1.1513624e-38
4.136622 8.1473503 -40.121311 1.1882047e-38
4.2374301 8.1473503 -40.121311 1.2066438e-38
4.351995 8.1731873 -40.248543 1.2158634e-38
4.4625568 8.1905031 -40.333817 1.1882047e-38
5.1030421 8.2428942 -40.591816 1.2064636e-38
5.1939578 8.2253561 -40.505451 1.1604015e-38
6.6639719 10.350515 -50.970715 1.132779e-38
6.8841982 10.490956 -51.662312 1.1051923e-38
7.2198291 7.8815851 -38.812561 1.2342661e-38
7.280242 7.8416181 -38.615742 1.2342659e-38
7.3548889 7.817831 -38.498608 1.2250464e-38
7.4440932 7.8099351 -38.459721 1.2619245e-38
7.5407262 7.8099351 -38.459721 1.2988026e-38
7.6373591 7.8099351 -38.459721 1.2803992e-38
7.8129101 7.889627 -38.852165 1.2896549e-38
7.9429488 7.9219618 -39.011395 1.3173503e-38
8.0657606 7.9463878 -39.13168 1.354229e-38
8.1640816 7.9463878 -39.13168 1.4095465e-38
8.2454548 7.9300871 -39.051407 1.4556442e-38
8.3350258 7.9219618 -39.011395 1.4740832e-38
8.4330444 7.9219618 -39.011395 1.4648636e-38
8.5223322 7.9138541 -38.971466 1.4372049e-38
8.5449581 7.6704712 -37.772938 1.3725957e-38
8.6398659 7.6704712 -37.772938 1.4002542e-38
8.7347727 7.6704712 -37.772938 1.4002542e-38
8.8296804 7.6704712 -37.772938 1.3541201e-38
-16.134747 13.420331 -66.915855 1.8256896e-38
-15.938604 13.396787 -66.798462 1.8256894e-38
-15.770768 13.396787 -66.798462 1.8256893e-38
-15.467255 13.280293 -66.217606 1.8348369e-38
-15.300878 13.280293 -66.217606 1.8348369e-38
-6.1656809 7.5755639 -37.772938 1.8257975e-38
-6.0707741 7.5755639 -37.772938 1.8257975e-38
-5.9758658 7.5755639 -37.772938 1.8441287e-38
-5.880959 7.5755639 -37.772938 1.8349091e-38
-5.7860508 7.5755639 -37.772938 1.8349091e-38
-5.691144 7.5755639 -37.772938 1.8348372e-38
-5.5962372 7.5755639 -37.772938 1.8440568e-38
-3.9559669 15.061477 -75.098862 7.0032497e-39
-3.7524731 15.002295 -74.80378 6.7259454e-39
-3.564523 15.002295 -74.80378 6.7259468e-39
-3.38322 15.031828 -74.951027 6.8181396e-39
-1.6140651 8.608984 -42.925732 7.7386526e-39
-1.496091 8.5511408 -42.637314 8.6598872e-39
-1.382768 8.5130081 -42.447182 9.397448e-39
-1.269042 8.4658184 -42.211887 1.0501631e-38
-1.162982 8.4658184 -42.211887 1.1146278e-38
-1.097057 8.7873058 -43.814869 1.1515064e-38
-0.98810601 8.7974291 -43.865349 1.1975682e-38
-1.028353 10.305221 -51.38343 1.1054088e-38
-0.899248 10.305221 -51.38343 9.6711566e-39
-0.77014399 10.305221 -51.38343 8.4736953e-39
-0.63589001 10.222447 -50.970715 7.9208816e-39
-0.416861 8.3913937 -41.840794 7.4599049e-39
-0.31173199 8.3913937 -41.840794 7.6446549e-39
3.59096 7.9543419 -39.661587 9.2119708e-39
3.68294 7.9378052 -39.579128 9.8562598e-39
3.774538 7.9213371 -39.497017 1.0408715e-38
3.8778 7.9295621 -39.538029 1.1236677e-38
4.0358138 8.0465422 -40.121311 1.1789493e-38
4.140985 8.0550299 -40.163631 1.2250469e-38
4.2508678 8.0720596 -40.248543 1.2342666e-38
4.3612161 8.0891619 -40.333817 1.2250469e-38
4.4625568 8.0891619 -40.333817 1.2065719e-38
4.5687389 8.0977392 -40.376587 1.1697297e-38
5.0332479 8.1933136 -40.853134 1.2525258e-38
5.1030421 8.1409044 -40.591816 1.2248669e-38
5.1939578 8.1235838 -40.505451 1.2064276e-38
5.2957311 8.1235838 -40.505451 1.1880605e-38
6.8841982 10.361152 -51.662312 1.1696574e-38
7.2198291 7.7840662 -38.812561 1.2711446e-38
7.3098969 7.7761388 -38.773037 1.2619249e-38
7.3772669 7.7445931 -38.615742 1.2527052e-38
7.4516201 7.7211008 -38.498608 1.2711801e-38
7.5483508 7.7211008 -38.498608 1.2988385e-38
7.715291 7.7920089 -38.852165 1.2988743e-38
10.678734 10.650166 -53.103378 1.3173137e-38
10.81216 10.650166 -53.103378 1.3357894e-38
8.0990562 7.8804631 -39.293213 1.3726681e-38
8.1808977 7.8642311 -39.21228 1.4279856e-38
8.2624025 7.8480659 -39.13168 1.4740834e-38
8.3607244 7.8480659 -39.13168 1.501742e-38
8.6398659 7.5755639 -37.772938 1.4094738e-38
8.7347727 7.5755639 -37.772938 1.3910347e-38
8.8296804 7.5755639 -37.772938 1.3449005e-38
-16.134747 13.2522 -66.915855 1.8256896e-38
-15.910691 13.205783 -66.681473 1.8256894e-38
-15.743149 13.205783 -66.681473 1.8256894e-38
-15.467255 13.113916 -66.217606 1.8348371e-38
-15.300878 13.113916 -66.217606 1.8348371e-38
-6.1656809 7.4806571 -37.772938 1.8257975e-38
-6.0707741 7.4806571 -37.772938 1.8257975e-38
-5.9758658 7.4806571 -37.772938 1.8441287e-38
-5.880959 7.4806571 -37.772938 1.8349091e-38
-5.7860508 7.4806571 -37.772938 1.8349091e-38
-5.691144 7.4806571 -37.772938 1.8349091e-38
-2.820019 9.27491 -46.83287 9.030469e-39
-2.689117 9.2295008 -46.603577 7.9244829e-39
-2.572022 9.2295008 -46.603577 7.2794751e-39
-3.9559669 14.872785 -75.098862 6.9110541e-39
-1.60322 8.4440107 -42.637314 7.8308454e-39
-1.489419 8.4063568 -42.447182 8.9368314e-39
-1.375103 8.3597584 -42.211887 9.8577059e-39
-1.2578861 8.2862654 -41.840794 1.1054085e-38
-1.155297 8.3045177 -41.932953 1.1606536e-38
-1.097057 8.6772165 -43.814869 1.2159354e-38
-0.98810601 8.6872139 -43.865349 1.2252269e-38
-0.877891 8.6872139 -43.865349 1.1238482e-38
-0.90046299 10.189867 -51.452869 9.6711566e-39
-0.77118403 10.189867 -51.452869 8.5658909e-39
-0.52837598 8.3876553 -42.352749 8.289304e-39
-0.416861 8.2862654 -41.840794 7.2755136e-39
-0.31173199 8.2862654 -41.840794 8.0127185e-39
2.9439771 7.725924 -39.011395 1.1789851e-38
3.038882 7.7180161 -38.971466 1.2066442e-38
3.130393 7.7022491 -38.891853 1.1606183e-38
3.3881249 7.8465161 -39.620316 1.059275e-38
3.494947 7.8628802 -39.702942 9.5796743e-39
3.59096 7.8546901 -39.661587 1.0132848e-38
3.6867721 7.8465161 -39.620316 1.0777138e-38
3.7823851 7.8383589 -39.579128 1.1237038e-38
3.88587 7.8465161 -39.620316 1.1696937e-38
4.040071 7.9541159 -40.163631 1.224939e-38
4.1497402 7.970932 -40.248543 1.2618174e-38
4.2553658 7.9793668 -40.291134 1.271037e-38
4.3612161 7.9878201 -40.333817 1.2526337e-38
4.4625568 7.9878201 -40.333817 1.2526697e-38
4.563899 7.9878201 -40.333817 1.2250111e-38
4.6652408 7.9878201 -40.333817 1.2249392e-38
5.108489 8.0474939 -40.635136 1.2433061e-38
5.210588 8.0474939 -40.635136 1.2341224e-38
5.312686 8.0474939 -40.635136 1.2341583e-38
7.2124772 7.678719 -38.773037 1.3172784e-38
7.3098969 7.678719 -38.773037 1.2988393e-38
7.4073172 7.678719 -38.773037 1.2896196e-38
7.4742918 7.6475682 -38.615742 1.2896553e-38
10.845116 10.680597 -53.930767 1.3725952e-38
10.980621 10.680597 -53.930767 1.3911068e-38
10.945586 10.516739 -53.103378 1.4095464e-38
8.2965107 7.7817359 -39.293213 1.483303e-38
8.7351904 7.5631909 -38.189693 1.4279129e-38
8.7347727 7.4806571 -37.772938 1.3909986e-38
8.8296804 7.4806571 -37.772938 1.3725594e-38
8.9245882 7.4806571 -37.772938 1.3449005e-38
-16.10644 13.061114 -66.798462 1.8256896e-38
-15.910691 13.03824 -66.681473 1.8348372e-38
-15.743149 13.03824 -66.681473 1.8348372e-38
-15.467255 12.947539 -66.217606 1.8439849e-38
-15.300878 12.947539 -66.217606 1.8440208e-38
-6.1656809 7.3857489 -37.772938 1.8441287e-38
-6.0707741 7.3857489 -37.772938 1.8441287e-38
-5.9758658 7.3857489 -37.772938 1.8441287e-38
-5.880959 7.3857489 -37.772938 1.8441287e-38
-5.7860508 7.3857489 -37.772938 1.8349091e-38
-5.691144 7.3857489 -37.772938 1.8349091e-38
-2.9268899 9.1235723 -46.66069 9.7676767e-39
-2.8062119 9.1124058 -46.603577 8.8460819e-39
-2.67276 9.0569773 -46.320099 7.8322901e-39
-2.525651 8.9481192 -45.763371 7.187641e-39
-2.399133 8.9053049 -45.544407 6.9110541e-39
-1.588985 8.2628584 -42.258739 7.9230396e-39
-1.477886 8.2354374 -42.1185 9.2130582e-39
-1.363014 8.181138 -41.840794 1.0134293e-38
-1.238827 8.0571814 -41.206844 1.1330315e-38
-1.1352921 8.0571814 -41.206844 1.179093e-38
-1.095796 8.5572805 -43.764507 1.2343745e-38
-0.98583502 8.5572805 -43.764507 1.2160073e-38
-0.87587303 8.5572805 -43.764507 1.0961895e-38
-0.90046299 10.060588 -51.452869 9.4867654e-39
-0.77118403 10.060588 -51.452869 8.4736953e-39
-0.52837598 8.2812405 -42.352749 8.289304e-39
-0.419164 8.2263374 -42.07196 7.5517404e-39
-0.31345499 8.2263374 -42.07196 8.6577292e-39
2.3926351 7.7469668 -39.620316 1.188241e-38
2.489593 7.738914 -39.579128 1.2158276e-38
2.5890391 7.738914 -39.579128 1.2342668e-38
2.6829059 7.722858 -39.497017 1.2249753e-38
2.776386 7.7068691 -39.415241 1.2065721e-38
2.8635621 7.6750879 -39.252705 1.2526699e-38
2.9621871 7.6750879 -39.252705 1.2343028e-38
3.041996 7.6279049 -39.011395 1.16973e-38
3.136801 7.6200981 -38.971466 1.1236682e-38
3.238034 7.6279049 -39.011395 1.0868619e-38
3.349782 7.659296 -39.171936 1.0223607e-38
3.487674 7.7469668 -39.620316 1.0777138e-38
3.59096 7.7550368 -39.661587 1.1606539e-38
3.6944611 7.763124 -39.702942 1.2067157e-38
3.7902651 7.7550368 -39.661587 1.2065719e-38
3.8939741 7.763124 -39.702942 1.224939e-38
4.040071 7.8532019 -40.163631 1.271001e-38
4.1497402 7.8698049 -40.248543 1.2986236e-38
4.2598739 7.8864779 -40.333817 1.2894401e-38
4.3612161 7.8864779 -40.333817 1.2986597e-38
4.4625568 7.8864779 -40.333817 1.2895121e-38
4.563899 7.8864779 -40.333817 1.2711089e-38
4.6652408 7.8864779 -40.333817 1.2618893e-38
5.1194162 7.9623909 -40.722057 1.2618173e-38
5.2385411 7.9880209 -40.853134 1.2618532e-38
7.115057 7.5812988 -38.773037 1.3725601e-38
7.2051401 7.573586 -38.733593 1.3541211e-38
7.3098969 7.5812988 -38.773037 1.3357178e-38
8.0822058 8.2720394 -42.305691 1.3264981e-38
8.2067394 8.2904615 -42.399914 1.3264981e-38
8.8280764 7.8038111 -39.91103 1.520181e-38
8.9096785 7.7874851 -39.827534 1.5109972e-38
9.028635 7.8038111 -39.91103 1.4741188e-38
9.0061893 7.6988988 -39.374481 1.4463522e-38
8.7347727 7.3857489 -37.772938 1.4094738e-38
8.8296804 7.3857489 -37.772938 1.3909985e-38
8.9245882 7.3857489 -37.772938 1.3633398e-38
-16.10644 12.893278 -66.798462 1.8256896e-38
-15.910691 12.870698 -66.681473 1.8348374e-38
-15.743149 12.870698 -66.681473 1.8440209e-38
-15.467255 12.781163 -66.217606 1.8531686e-38
-15.300878 12.781163 -66.217606 1.8440209e-38
-6.1656809 7.2908421 -37.772938 1.8441287e-38
-6.0707741 7.2908421 -37.772938 1.8441287e-38
-5.9758658 7.2908421 -37.772938 1.8441287e-38
-5.880959 7.2908421 -37.772938 1.8441287e-38
-5.7860508 7.2908421 -37.772938 1.8441287e-38
-3.3822269 9.2909842 -48.135426 9.306337e-39
-3.2085509 9.1407566 -47.357117 8.9379118e-39
-3.059124 9.0507002 -46.890545 8.845719e-39
-2.9268899 9.0063343 -46.66069 8.8460791e-39
-2.7891431 8.9405947 -46.320099 8.4776581e-39
-2.628001 8.7908716 -45.544407 8.108877e-39
-2.477998 8.6664724 -44.89991 7.4638677e-39
-2.354079 8.6257849 -44.68911 6.7266628e-39
-2.2738199 8.7490101 -45.327526 6.7263027e-39
-1.695164 8.1566801 -42.258739 7.8304838e-39
-1.566385 8.0406656 -41.657684 8.1985475e-39
-1.456935 8.0143604 -41.5214 9.4892863e-39
-1.342362 7.9536462 -41.206844 1.0594552e-38
-1.230834 7.9023318 -40.94099 1.1514348e-38
-1.129181 7.9108381 -40.985062 1.2066798e-38
-1.094538 8.4376221 -43.714264 1.2435941e-38
-0.984703 8.4376221 -43.714264 1.2252269e-38
-0.87186402 8.4086599 -43.564213 1.123848e-38
-0.75806898 8.3608294 -43.316406 9.7633523e-39
-0.64556098 8.3135405 -43.071407 8.6580865e-39
-0.53311998 8.2482252 -42.733021 8.5658909e-39
-0.423374 8.2021971 -42.494556 8.7499234e-39
2.2954741 7.6553841 -39.661587 1.2342669e-38
2.3926351 7.647418 -39.620316 1.2434863e-38
2.489593 7.6394691 -39.579128 1.2434505e-38
2.5890391 7.6394691 -39.579128 1.2433784e-38
2.680126 7.6157188 -39.456085 1.2433426e-38
2.770649 7.5921159 -39.333805 1.2433786e-38
2.8635621 7.5764632 -39.252705 1.2249034e-38
2.9621871 7.5764632 -39.252705 1.2065722e-38
3.041996 7.5298858 -39.011395 1.1973526e-38
3.133594 7.5144868 -38.931618 1.0867539e-38
3.23472 7.5221791 -38.971466 1.022253e-38
3.3360529 7.5298858 -39.011395 1.105229e-38
3.4624529 7.5921159 -39.333805 1.225119e-38
3.5947039 7.6633668 -39.702942 1.2895839e-38
3.6944611 7.6633668 -39.702942 1.3079511e-38
3.7942171 7.6633668 -39.702942 1.271001e-38
3.8939741 7.6633668 -39.702942 1.271001e-38
4.0315661 7.7359672 -40.079075 1.3170628e-38
4.1453581 7.7604742 -40.206043 1.3447215e-38
4.2553658 7.7768979 -40.291134 1.3447215e-38
4.3612161 7.7851362 -40.333817 1.3355379e-38
4.4625568 7.7851362 -40.333817 1.3355379e-38
4.563899 7.7851362 -40.333817 1.3079511e-38
4.6537571 7.2908421 -37.772938 1.3079512e-38
4.7486639 7.2908421 -37.772938 1.2803284e-38
7.0433331 7.4084358 -38.382179 1.4002548e-38
7.139771 7.4084358 -38.382179 1.3817799e-38
8.8280764 7.7035308 -39.91103 1.5570592e-38
8.8725538 7.6553841 -39.661587 1.5386201e-38
9.028635 7.7035308 -39.91103 1.5017776e-38
9.0342169 7.6236191 -39.497017 1.4647913e-38
8.884613 7.4159122 -38.42091 1.4279129e-38
8.8296804 7.2908421 -37.772938 1.4094378e-38
8.9245882 7.2908421 -37.772938 1.3817791e-38
-16.078234 12.703156 -66.681473 1.8348372e-38
-15.855156 12.658817 -66.44873 1.843985e-38
-15.688199 12.658817 -66.44873 1.8531687e-38
-15.413642 12.571061 -65.988083 1.8531687e-38
-15.247842 12.571061 -65.988083 1.8439852e-38
-6.1656809 7.1959348 -37.772938 1.8532764e-38
-6.0707741 7.1959348 -37.772938 1.8532764e-38
-5.9758658 7.1959348 -37.772938 1.8441287e-38
-5.880959 7.1959348 -37.772938 1.8441287e-38
-5.7860508 7.1959348 -37.772938 1.8441287e-38
-3.2085509 9.0217686 -47.357117 8.6613291e-39
-3.059124 8.9328842 -46.890545 8.292548e-39
-2.919733 8.867362 -46.546604 7.7397358e-39
-2.7391579 8.6660719 -45.48999 7.6478989e-39
-2.5696011 8.4836283 -44.532307 7.4642279e-39
-2.454839 8.4737177 -44.480282 7.0954453e-39
-2.3430791 8.4737177 -44.480282 6.5422716e-39
-2.2365439 8.4935617 -44.584454 6.7263013e-39
-1.6710531 7.935998 -41.657684 7.9223207e-39
-1.549433 7.850111 -41.206844 8.5666083e-39
-1.439665 7.8162742 -41.029228 9.9495414e-39
-1.332269 7.7910872 -40.897018 1.1146644e-38
-1.2177401 7.7164922 -40.505451 1.1974963e-38
-1.117156 7.72471 -40.548588 1.2435219e-38
-1.090781 8.299201 -43.564213 1.2712528e-38
-0.981323 8.299201 -43.564213 1.2713247e-38
-0.86690497 8.2519932 -43.316406 1.206788e-38
-0.75720799 8.2426157 -43.267185 1.0869698e-38
-0.64556098 8.2053194 -43.071407 9.8555493e-39
-0.53552401 8.1775665 -42.925732 9.4867654e-39
-0.42767 8.1775665 -42.925732 1.0316526e-38
2.2073181 7.5952902 -39.86924 1.2895484e-38
2.297868 7.5636101 -39.702942 1.3263907e-38
2.3951271 7.5557308 -39.661587 1.3447938e-38
2.4947801 7.5557308 -39.661587 1.3263546e-38
2.591733 7.5478692 -39.620316 1.3078435e-38
2.688484 7.5400229 -39.579128 1.3170272e-38
2.779263 7.516582 -39.456085 1.234123e-38
2.8754189 7.508801 -39.415241 1.2433426e-38
2.9713769 7.5010362 -39.374481 1.2433786e-38
3.070308 7.5010362 -39.374481 1.123524e-38
3.136801 7.4242601 -38.971466 1.0590591e-38
3.2314119 7.4166689 -38.931618 1.2065719e-38
3.32583 7.4090929 -38.891853 1.3448654e-38
3.434072 7.4318671 -39.011395 1.3448294e-38
3.609761 7.5952902 -39.86924 1.354013e-38
3.798178 7.5715051 -39.744389 1.3355019e-38
3.8980391 7.5715051 -39.744389 1.3447215e-38
4.0188751 7.6112299 -39.952908 1.3723801e-38
4.132267 7.6352649 -40.079075 1.400003e-38
4.2463789 7.6594529 -40.206043 1.4091865e-38
4.351995 7.6675501 -40.248543 1.3815638e-38
4.4578352 7.675663 -40.291134 1.3631606e-38
4.5588498 7.1959348 -37.772938 1.3263904e-38
4.6537571 7.1959348 -37.772938 1.3172067e-38
4.7486639 7.1959348 -37.772938 1.2988036e-38
4.8435721 7.1959348 -37.772938 1.2988397e-38
4.9384789 7.1959348 -37.772938 1.3356818e-38
8.8652468 7.6352649 -40.079075 1.5754984e-38
8.9283562 7.603251 -39.91103 1.5570592e-38
9.028635 7.603251 -39.91103 1.520181e-38
9.0624189 7.5478692 -39.620316 1.492486e-38
9.0957146 7.4932871 -39.333805 1.4556077e-38
8.8296804 7.1959348 -37.772938 1.4371325e-38
8.9245882 7.1959348 -37.772938 1.4094378e-38
-16.022114 12.491859 -66.44873 1.8348372e-38
-15.800008 12.448409 -66.217606 1.843985e-38
-15.633631 12.448409 -66.217606 1.8531686e-38
-15.413642 12.405261 -65.988083 1.8531687e-38
-15.247842 12.405261 -65.988083 1.8531687e-38
-6.1656809 7.101027 -37.772938 1.8716076e-38
-6.0707741 7.101027 -37.772938 1.8624959e-38
-5.9758658 7.101027 -37.772938 1.8533482e-38
-5.880959 7.101027 -37.772938 1.8533482e-38
-3.059124 8.8150682 -46.890545 8.5698552e-39
-2.726418 8.1710453 -43.464752 7.5557032e-39
-2.6142249 8.1617279 -43.415192 7.0028896e-39
-2.5080011 8.1710453 -43.464752 6.7266628e-39
-2.4236929 8.2558651 -43.915943 6.7266628e-39
-2.3187001 8.2749538 -44.017483 6.7270202e-39
-2.231319 8.3619576 -44.480282 7.002884e-39
-1.76606 7.788722 -41.431038 8.1992664e-39
-1.647619 7.7215052 -41.073486 8.2903816e-39
-1.539436 7.6965971 -40.94099 8.9346706e-39
-1.43195 7.6718488 -40.809349 1.0317605e-38
-1.3181109 7.606627 -40.462406 1.1515066e-38
-1.213866 7.5904942 -40.376587 1.2343026e-38
-1.115967 7.614718 -40.505451 1.2803642e-38
-1.090781 8.189743 -43.564213 1.3080949e-38
-0.97908199 8.1710453 -43.464752 1.3265702e-38
-0.86592001 8.1339045 -43.267185 1.2713249e-38
-0.75720799 8.1339045 -43.267185 1.1883849e-38
-0.64702499 8.1154594 -43.169075 1.0961895e-38
-0.53673398 8.0879498 -43.022736 1.0500917e-38
-0.42767 8.0697126 -42.925732 1.1146287e-38
2.2096319 7.5029721 -39.91103 1.3908197e-38
2.30267 7.4794521 -39.785915 1.4000393e-38
2.4001269 7.4716439 -39.744389 1.4000393e-38
2.497381 7.4638529 -39.702942 1.3723804e-38
2.5944321 7.456079 -39.661587 1.3354663e-38
2.691282 7.4483199 -39.620316 1.2709294e-38
2.7850349 7.4328508 -39.538029 1.3170272e-38
2.8783989 7.4174461 -39.456085 1.2617098e-38
2.974453 7.4097681 -39.415241 1.1695859e-38
3.070308 7.4021049 -39.374481 1.2249032e-38
