-9.320266 -3.379008 -38.228035 97 72 59 
-9.435263 -3.385806 -38.304951 96 70 57 
-9.531507 -3.385806 -38.304951 97 71 58 
-9.608418 -3.379008 -38.228035 98 73 60 
-9.704469 -3.379008 -38.228035 97 74 60 
-9.800519 -3.379008 -38.228035 94 71 57 
-9.886644 -3.375618 -38.189693 91 69 55 
-9.873661 -3.338781 -37.772938 87 67 52 
-9.968569 -3.338781 -37.772938 83 64 49 
-10.063476 -3.338781 -37.772938 84 66 50 
-10.158383 -3.338781 -37.772938 88 71 55 
15.099788 -5.692694 -62.623558 182 170 180 
14.869075 -5.664743 -62.316078 182 170 180 
14.712501 -5.664743 -62.316078 182 170 180 
14.298507 -5.564563 -61.214024 182 170 180 
13.987288 -5.502636 -60.532787 182 170 180 
13.835196 -5.502636 -60.532787 182 169 181 
6.355495 -3.433689 -37.772938 186 172 185 
6.260588 -3.433689 -37.772938 186 172 185 
6.165681 -3.433689 -37.772938 187 172 185 
6.070774 -3.433689 -37.772938 187 171 184 
5.975866 -3.433689 -37.772938 188 170 184 
5.880959 -3.433689 -37.772938 188 170 184 
5.786051 -3.433689 -37.772938 189 171 185 
5.691144 -3.433689 -37.772938 188 172 185 
5.596237 -3.433689 -37.772938 187 174 185 
5.501329 -3.433689 -37.772938 187 174 184 
7.847834 -15.804375 -173.859009 128 86 79 
7.343932 -15.661348 -172.285629 131 87 80 
6.849069 -15.520888 -170.740463 135 90 85 
6.391410 -15.451598 -169.978226 139 94 89 
5.964327 -15.451598 -169.978226 140 95 90 
5.537244 -15.451598 -169.978226 141 93 90 
5.156198 -15.590802 -171.509567 141 88 89 
5.142203 -16.966461 -186.642761 144 91 92 
0.761174 -14.012786 -154.150299 148 101 92 
0.369373 -13.844632 -152.300491 149 101 93 
-0.013565 -14.127175 -155.408661 148 100 90 
-0.412458 -14.421492 -158.646347 142 97 85 
-4.507618 -4.403509 -48.441631 129 76 74 
-4.605892 -4.381213 -48.196358 119 68 65 
-4.691358 -4.348188 -47.833069 115 65 61 
-4.787485 -4.326447 -47.593903 107 59 54 
-4.894831 -4.315659 -47.475216 102 56 50 
-5.026651 -4.326447 -47.593903 104 59 53 
-8.283677 -6.964101 -76.609901 102 58 51 
-8.493255 -6.978141 -76.764359 100 56 50 
-8.624601 -6.236321 -68.603828 114 74 66 
-5.792065 -3.807655 -41.886822 108 73 63 
-5.414802 -3.496119 -38.459721 104 71 61 
-5.500322 -3.489071 -38.382179 104 71 60 
-5.795479 -3.492591 -38.420910 94 66 54 
-5.886075 -3.489071 -38.382179 95 68 55 
-5.982513 -3.489071 -38.382179 108 81 68 
-6.078951 -3.489071 -38.382179 97 71 58 
-6.187865 -3.496119 -38.459721 96 69 57 
-6.303600 -3.506746 -38.576618 93 66 51 
-6.426571 -3.521015 -38.733593 92 62 46 
-6.523892 -3.521015 -38.733593 95 63 46 
-6.614484 -3.517437 -38.694229 102 70 52 
-6.698092 -3.510302 -38.615742 109 78 60 
-6.781362 -3.503196 -38.537575 110 79 61 
-6.878191 -3.503196 -38.537575 108 77 59 
-8.763016 -3.560862 -39.171936 113 77 67 
-8.735617 -3.510302 -38.615742 110 78 67 
-8.805849 -3.499654 -38.498608 108 76 65 
-8.875656 -3.489071 -38.382179 103 75 62 
-8.963059 -3.485557 -38.343529 98 73 57 
-9.023054 -3.471573 -38.189693 94 72 54 
-9.119008 -3.471573 -38.189693 92 71 52 
-9.261409 -3.489071 -38.382179 93 71 55 
-9.367290 -3.492591 -38.420910 96 72 58 
-9.482964 -3.499654 -38.498608 94 70 56 
-9.550723 -3.489071 -38.382179 95 69 56 
-9.637446 -3.485557 -38.343529 97 71 58 
-9.714222 -3.478551 -38.266457 95 71 57 
-9.800519 -3.475058 -38.228035 92 69 55 
-9.886644 -3.471573 -38.189693 89 67 52 
-9.972596 -3.468094 -38.151424 88 66 51 
-9.968569 -3.433689 -37.772938 86 66 51 
-10.063476 -3.433689 -37.772938 86 68 53 
-10.158383 -3.433689 -37.772938 88 71 55 
-10.253291 -3.433689 -37.772938 87 71 55 
15.025648 -5.821317 -62.316078 182 170 179 
14.772365 -5.783455 -61.910770 183 170 179 
14.616810 -5.783455 -61.910770 183 170 180 
14.252678 -5.700039 -61.017826 183 170 180 
14.076807 -5.690919 -60.920197 183 170 180 
6.355495 -3.528596 -37.772938 186 171 185 
6.260588 -3.528596 -37.772938 186 172 185 
6.165681 -3.528596 -37.772938 187 171 185 
6.070774 -3.528596 -37.772938 187 170 184 
5.975866 -3.528596 -37.772938 187 170 184 
5.880959 -3.528596 -37.772938 187 170 183 
5.786051 -3.528596 -37.772938 188 171 184 
5.691144 -3.528596 -37.772938 188 172 185 
5.596237 -3.528596 -37.772938 187 173 186 
5.501329 -3.528596 -37.772938 186 174 184 
5.406422 -3.528596 -37.772938 186 173 186 
8.473153 -14.342035 -153.528717 108 86 80 
8.287915 -14.697622 -157.335220 118 91 83 
8.681858 -16.167385 -173.068741 122 89 81 
8.247010 -16.167385 -173.068741 123 84 77 
7.776813 -16.094229 -172.285629 123 80 73 
7.245576 -15.878681 -169.978226 127 82 76 
6.818493 -15.878681 -169.978226 134 87 82 
6.334849 -15.738162 -168.473999 139 92 88 
5.937819 -15.808109 -169.222763 139 94 89 
5.537244 -15.878681 -169.978226 140 92 88 
5.179529 -16.094229 -172.285629 139 89 86 
5.142203 -17.435415 -186.642761 142 92 89 
4.839303 -18.054947 -193.274734 145 96 90 
1.157863 -14.517652 -155.408661 146 100 90 
0.767387 -14.517652 -155.408661 143 98 87 
0.376911 -14.517652 -155.408661 143 97 86 
-0.013620 -14.577150 -156.045578 144 98 86 
-0.404041 -14.517652 -155.408661 140 97 82 
-0.794516 -14.517652 -155.408661 134 92 77 
-1.175397 -14.400100 -154.150299 128 87 73 
-1.525651 -14.058596 -150.494553 122 81 69 
-1.896285 -14.003246 -149.902054 119 78 67 
-1.286195 -5.292894 -56.659409 121 83 73 
-1.428556 -5.292894 -56.659409 123 84 75 
-4.775546 -4.434944 -47.475216 90 47 41 
-4.894831 -4.434944 -47.475216 89 46 40 
-5.014116 -4.434944 -47.475216 90 48 42 
-8.283677 -7.156589 -76.609901 90 48 41 
-8.452229 -6.408693 -68.603828 91 55 47 
-8.547596 -6.351473 -67.991287 95 59 50 
-8.796973 -6.408693 -68.603828 99 61 53 
-5.876101 -3.969670 -42.494556 102 67 58 
-5.897308 -3.912899 -41.886822 99 66 56 
-5.982807 -3.900027 -41.749039 98 65 56 
-5.982513 -3.585509 -38.382179 94 67 55 
-6.078951 -3.585509 -38.382179 90 66 54 
-6.206673 -3.603673 -38.576618 86 62 50 
-6.342154 -3.625713 -38.812561 80 56 42 
-6.439673 -3.625713 -38.812561 85 58 43 
-6.550548 -3.633120 -38.891853 88 60 43 
-6.655064 -3.636835 -38.931618 92 64 46 
-8.391766 -4.519472 -48.380081 99 71 52 
-8.427655 -4.473993 -47.893234 105 74 56 
-8.817445 -3.682013 -39.415241 110 74 63 
-8.762277 -3.618336 -38.733593 109 77 64 
-8.823692 -3.603673 -38.576618 109 77 64 
-8.902579 -3.596385 -38.498608 102 75 59 
-8.981148 -3.589127 -38.420910 98 72 55 
-9.068533 -3.585509 -38.382179 96 73 53 
-9.164970 -3.585509 -38.382179 94 72 52 
-9.270755 -3.589127 -38.420910 93 72 53 
-9.386233 -3.596385 -38.498608 96 74 58 
-9.492561 -3.600025 -38.537575 89 67 53 
-9.579694 -3.596385 -38.498608 87 63 49 
-9.647161 -3.585509 -38.382179 90 64 51 
-9.714222 -3.574698 -38.266457 94 68 54 
-9.810369 -3.574698 -38.266457 94 68 54 
-9.896570 -3.571109 -38.228035 90 64 48 
-9.982598 -3.567527 -38.189693 87 63 46 
-10.048317 -3.556825 -38.075123 85 63 47 
-10.063476 -3.528596 -37.772938 84 64 47 
-10.158383 -3.528596 -37.772938 84 67 50 
-10.253291 -3.528596 -37.772938 82 66 50 
14.927920 -5.939010 -61.910770 183 169 177 
14.700654 -5.910180 -61.610229 184 169 178 
14.545855 -5.910180 -61.610229 184 169 179 
14.229874 -5.843986 -60.920197 184 169 178 
14.076807 -5.843986 -60.920197 183 168 178 
6.450403 -3.623503 -37.772938 185 171 186 
6.355495 -3.623503 -37.772938 186 170 186 
6.260588 -3.623503 -37.772938 187 170 186 
6.165681 -3.623503 -37.772938 187 170 186 
6.070774 -3.623503 -37.772938 186 169 185 
5.975866 -3.623503 -37.772938 186 170 183 
5.880959 -3.623503 -37.772938 185 169 182 
5.786051 -3.623503 -37.772938 186 170 181 
5.691144 -3.623503 -37.772938 187 171 184 
5.596237 -3.623503 -37.772938 186 172 185 
5.501329 -3.623503 -37.772938 185 172 185 
5.406422 -3.623503 -37.772938 185 172 187 
7.655083 -12.726451 -132.665939 83 67 61 
8.576906 -14.908128 -155.408661 98 78 70 
8.253808 -15.030828 -156.687744 111 86 76 
7.892599 -15.092939 -157.335220 119 87 77 
8.063744 -16.233295 -169.222763 120 82 73 
7.672659 -16.305765 -169.978226 119 76 69 
7.213374 -16.233295 -169.222763 125 78 72 
6.758152 -16.161467 -168.473999 133 85 80 
6.306942 -16.090269 -167.731812 138 90 86 
5.885503 -16.090269 -167.731812 138 93 88 
5.562074 -16.378885 -170.740463 139 93 87 
5.810538 -18.540565 -193.274734 138 90 85 
5.324921 -18.540565 -193.274734 141 92 86 
4.839303 -18.540565 -193.274734 144 95 88 
1.574038 -15.155565 -157.988068 146 102 91 
1.157863 -14.908128 -155.408661 143 99 88 
0.767387 -14.908128 -155.408661 139 95 83 
0.376911 -14.908128 -155.408661 137 94 80 
-0.013509 -14.847526 -154.776917 139 96 81 
-0.402398 -14.847526 -154.776917 137 94 78 
-0.788083 -14.787415 -154.150299 129 87 71 
-1.147522 -14.436725 -150.494553 121 79 66 
-1.513685 -14.323495 -149.314209 115 75 64 
-1.874149 -14.212029 -148.152222 112 73 62 
-2.246393 -14.212029 -148.152222 109 71 60 
-1.290034 -5.451479 -56.828541 113 77 67 
-1.432820 -5.451479 -56.828541 117 79 70 
-4.799483 -4.577057 -47.713188 81 44 36 
-4.894831 -4.554228 -47.475216 80 43 35 
-5.032942 -4.571328 -47.653469 80 43 35 
-5.257966 -4.664740 -48.627232 79 40 33 
-8.294803 -6.592945 -68.727661 78 45 36 
-8.376762 -6.522306 -67.991287 77 45 36 
-8.547596 -6.522306 -67.991287 78 46 37 
-5.769331 -4.076441 -42.494556 90 56 48 
-5.804837 -4.027002 -41.979187 91 59 50 
-5.890828 -4.013727 -41.840794 92 61 51 
-5.982807 -4.004925 -41.749039 92 61 51 
-6.081037 -4.000538 -41.703312 89 60 49 
-6.147115 -3.723233 -38.812561 83 61 48 
-6.244634 -3.723233 -38.812561 79 59 45 
-6.381182 -3.746145 -39.051407 75 52 39 
-6.479302 -3.746145 -39.051407 77 55 38 
-6.604517 -3.761577 -39.212280 81 57 39 
-8.259711 -4.635141 -48.318684 86 62 44 
-8.762277 -3.715657 -38.733593 109 75 63 
-8.823692 -3.700599 -38.576618 107 75 61 
-8.902579 -3.693115 -38.498608 100 72 56 
-8.990220 -3.689385 -38.459721 96 69 51 
-9.068533 -3.681947 -38.382179 95 70 50 
-9.164970 -3.681947 -38.382179 95 70 49 
-9.261409 -3.681947 -38.382179 92 71 50 
-9.395733 -3.696854 -38.537575 93 72 55 
-9.511816 -3.704352 -38.615742 87 66 50 
-9.608841 -3.704352 -38.615742 84 61 47 
-9.647161 -3.681947 -38.382179 87 63 49 
-9.714222 -3.670846 -38.266457 93 66 51 
-9.810369 -3.670846 -38.266457 95 67 53 
-9.896570 -3.667160 -38.228035 93 66 52 
-9.992621 -3.667160 -38.228035 87 63 47 
-10.078553 -3.663482 -38.189693 80 58 41 
-10.143984 -3.652491 -38.075123 80 60 43 
-10.158383 -3.623503 -37.772938 88 70 53 
-10.253291 -3.623503 -37.772938 87 71 55 
-10.348198 -3.623503 -37.772938 79 63 48 
14.927920 -6.094566 -61.910770 183 168 176 
14.700654 -6.064981 -61.610229 184 169 176 
14.545855 -6.064981 -61.610229 184 169 176 
14.229874 -5.997053 -60.920197 184 168 177 
14.076807 -5.997053 -60.920197 184 168 178 
6.450403 -3.718410 -37.772938 184 170 185 
6.355495 -3.718410 -37.772938 185 169 185 
6.260588 -3.718410 -37.772938 186 170 186 
6.165681 -3.718410 -37.772938 186 170 185 
6.070774 -3.718410 -37.772938 185 169 184 
5.975866 -3.718410 -37.772938 185 169 182 
5.880959 -3.718410 -37.772938 185 169 182 
5.786051 -3.718410 -37.772938 186 170 181 
5.691144 -3.718410 -37.772938 187 171 183 
5.596237 -3.718410 -37.772938 185 171 184 
5.501329 -3.718410 -37.772938 185 171 185 
5.406422 -3.718410 -37.772938 185 171 185 
7.988416 -13.059784 -132.665939 64 52 49 
7.818536 -13.338640 -135.498657 77 63 57 
8.576906 -15.298604 -155.408661 91 73 64 
8.219981 -15.361302 -156.045578 107 84 73 
7.860119 -15.424518 -156.687744 116 86 76 
7.591390 -15.682669 -159.310135 117 80 72 
7.472503 -16.296339 -165.544006 119 76 70 
7.118461 -16.439289 -166.996155 124 78 73 
6.698870 -16.439289 -166.996155 130 83 79 
6.279280 -16.439289 -166.996155 133 87 83 
5.885503 -16.511709 -167.731812 133 88 83 
6.890792 -20.823099 -211.528458 134 89 83 
6.088702 -19.937010 -202.527252 135 88 82 
5.435282 -19.420507 -197.280426 139 91 84 
4.863994 -19.123255 -194.260834 141 94 86 
4.375899 -19.123255 -194.260834 142 94 87 
2.367952 -15.552523 -157.988068 143 96 86 
1.970995 -15.552523 -157.988068 143 96 86 
1.554685 -15.361302 -156.045578 143 99 87 
1.162609 -15.361302 -156.045578 141 97 85 
0.770532 -15.361302 -156.045578 137 93 80 
0.378456 -15.361302 -156.045578 133 89 76 
-0.013509 -15.236414 -154.776917 130 88 73 
-0.402398 -15.236414 -154.776917 128 86 71 
-0.778626 -14.992632 -152.300491 123 81 66 
-1.143005 -14.756527 -149.902054 118 76 63 
-1.501906 -14.584272 -148.152222 113 72 62 
-1.852524 -14.415992 -146.442780 107 67 58 
-2.203523 -14.305946 -145.324890 103 66 56 
-2.568662 -14.305946 -145.324890 103 67 57 
-2.836370 -13.830841 -140.498611 103 69 60 
-3.177657 -13.779992 -139.982071 104 70 60 
-3.503611 -13.679408 -138.960297 107 71 62 
-4.919366 -4.696940 -47.713188 72 41 33 
-5.109684 -4.762589 -48.380081 73 41 33 
-8.095565 -6.889996 -69.991035 74 40 33 
-8.122119 -6.765628 -68.727661 74 42 34 
-8.220609 -6.705112 -68.112923 71 42 34 
-8.332127 -6.657474 -67.628990 70 42 33 
-8.547596 -6.693139 -67.991287 69 41 32 
-5.662560 -4.183212 -42.494556 71 42 33 
-5.705651 -4.137040 -42.025520 73 44 35 
-5.785700 -4.118855 -41.840794 75 47 38 
-5.877909 -4.109822 -41.749039 77 50 41 
-5.976254 -4.105321 -41.703312 78 52 43 
-6.074384 -4.100829 -41.657684 78 53 43 
-6.185820 -4.105321 -41.703312 77 54 43 
-6.360266 -4.150784 -42.165142 75 52 41 
-6.354757 -3.888131 -39.497017 68 50 38 
-6.440634 -3.880081 -39.415241 66 47 34 
-6.505993 -3.860101 -39.212280 67 48 32 
-8.138308 -4.756546 -48.318684 73 52 34 
-8.186984 -4.714664 -47.893234 80 58 41 
-8.381116 -4.756546 -48.318684 86 62 46 
-8.427655 -4.714664 -47.893234 93 65 50 
-8.826582 -3.884101 -39.456085 112 79 64 
-8.771199 -3.816861 -38.773037 112 79 64 
-8.823692 -3.797526 -38.576618 107 75 60 
-8.902579 -3.789846 -38.498608 99 70 54 
-8.990220 -3.786018 -38.459721 95 68 49 
-9.068533 -3.778385 -38.382179 95 68 49 
-9.164970 -3.778385 -38.382179 95 68 49 
-9.261409 -3.778385 -38.382179 93 69 49 
-9.357847 -3.778385 -38.382179 89 68 49 
-9.492561 -3.793682 -38.537575 87 65 47 
-9.550723 -3.778385 -38.382179 85 62 46 
-9.637446 -3.774580 -38.343529 85 61 46 
-9.714222 -3.766993 -38.266457 89 63 50 
-9.810369 -3.766993 -38.266457 92 66 53 
-9.906516 -3.766993 -38.266457 95 69 56 
-9.992621 -3.763211 -38.228035 89 64 51 
-10.078553 -3.759436 -38.189693 78 55 42 
-10.143984 -3.748158 -38.075123 78 58 44 
-10.158383 -3.718410 -37.772938 88 70 55 
-10.253291 -3.718410 -37.772938 89 72 56 
-10.348198 -3.718410 -37.772938 79 63 47 
14.976624 -6.270513 -62.112762 181 165 175 
14.724481 -6.229861 -61.710087 182 166 176 
14.569429 -6.229861 -61.710087 183 167 177 
14.275556 -6.169863 -61.115768 183 167 177 
14.121998 -6.169863 -61.115768 184 168 178 
6.450403 -3.813318 -37.772938 183 169 183 
6.355495 -3.813318 -37.772938 183 169 184 
6.260588 -3.813318 -37.772938 184 170 184 
6.165681 -3.813318 -37.772938 184 170 183 
6.070774 -3.813318 -37.772938 183 169 182 
5.975866 -3.813318 -37.772938 184 168 181 
5.880959 -3.813318 -37.772938 184 168 181 
5.786051 -3.813318 -37.772938 185 169 182 
5.691144 -3.813318 -37.772938 186 170 183 
5.596237 -3.813318 -37.772938 186 169 183 
5.501329 -3.813318 -37.772938 186 169 183 
5.406422 -3.813318 -37.772938 186 169 183 
6.189603 -4.443728 -44.017483 186 169 183 
8.321749 -13.393117 -132.665939 58 48 49 
8.217474 -13.777149 -136.469971 58 48 45 
7.960176 -13.926900 -137.953339 66 54 48 
8.576906 -15.689079 -155.408661 82 66 57 
8.219981 -15.753379 -156.045578 97 76 65 
7.860119 -15.818208 -156.687744 108 79 69 
7.591390 -16.082947 -159.310135 112 78 69 
7.251796 -16.218668 -160.654526 115 75 69 
7.056561 -16.712280 -165.544006 121 77 72 
6.640619 -16.712280 -165.544006 125 81 76 
6.279280 -16.858879 -166.996155 127 83 78 
7.169611 -22.218639 -220.087418 129 86 80 
6.359311 -21.354580 -211.528458 132 87 81 
5.521102 -20.230656 -200.395386 138 91 83 
4.939600 -19.916189 -197.280426 141 94 86 
4.375899 -19.611349 -194.260834 141 94 86 
3.577510 -18.046124 -178.756439 140 93 83 
2.776429 -16.015936 -158.646347 141 94 84 
2.367952 -15.949479 -157.988068 142 95 85 
1.970995 -15.949479 -157.988068 143 96 86 
1.561083 -15.818208 -156.687744 141 97 84 
1.167393 -15.818208 -156.687744 139 95 82 
0.773703 -15.818208 -156.687744 134 90 77 
0.380014 -15.818208 -156.687744 128 85 71 
-0.013565 -15.689079 -155.408661 124 82 68 
-0.402398 -15.625303 -154.776917 121 79 65 
-0.778626 -15.375298 -152.300491 118 76 62 
-1.138522 -15.073822 -149.314209 114 73 61 
-1.490308 -14.841022 -147.008194 109 69 60 
-1.838383 -14.671086 -145.324890 101 62 55 
-2.170387 -14.450468 -143.139557 97 60 52 
-2.492554 -14.236387 -141.018967 96 63 53 
-2.836370 -14.183854 -140.498611 94 63 53 
-3.177657 -14.131708 -139.982071 92 61 51 
-3.516445 -14.079944 -139.469315 93 61 53 
-1.739236 -3.874823 -38.382179 76 37 35 
-1.822812 -3.847672 -38.113235 75 36 35 
-7.258702 -6.938312 -68.727661 69 38 31 
-7.404654 -6.913353 -68.480438 73 40 33 
-7.576716 -6.913353 -68.480438 71 38 31 
-7.748778 -6.913353 -68.480438 69 36 29 
-7.906620 -6.900942 -68.357491 68 36 28 
-8.049470 -6.876251 -68.112923 66 36 28 
-8.162204 -6.827397 -67.628990 64 36 27 
-8.317353 -6.815292 -67.509079 62 36 27 
-5.643663 -4.275667 -42.352749 57 32 23 
-5.686821 -4.228630 -41.886822 58 33 23 
-5.785700 -4.223983 -41.840794 60 35 25 
-5.877909 -4.214720 -41.749039 61 38 27 
-5.976254 -4.210104 -41.703312 62 40 29 
-6.081037 -4.210104 -41.703312 64 41 30 
-6.192602 -4.214720 -41.749039 62 41 30 
-6.297500 -4.214720 -41.749039 59 39 28 
-6.409425 -4.219347 -41.794865 56 38 26 
-6.487647 -4.008159 -39.702942 55 39 26 
-6.539668 -3.979114 -39.415241 58 39 25 
-8.138308 -4.877950 -48.318684 65 45 30 
-8.259711 -4.877950 -48.318684 74 52 39 
-8.381116 -4.877950 -48.318684 80 57 43 
-8.826582 -3.983238 -39.456085 114 81 66 
-8.789100 -3.922270 -38.852165 111 78 63 
-8.832642 -3.898402 -38.615742 105 73 58 
-8.893587 -3.882651 -38.459721 99 67 52 
-8.981148 -3.878733 -38.420910 93 64 46 
-9.068533 -3.874823 -38.382179 91 64 45 
-9.146530 -3.867027 -38.304951 92 65 46 
-9.242774 -3.867027 -38.304951 90 66 46 
-9.339019 -3.867027 -38.304951 85 64 43 
-9.444764 -3.870921 -38.343529 86 65 47 
-9.541105 -3.870921 -38.343529 87 64 48 
-9.608418 -3.859262 -38.228035 85 61 46 
-9.704469 -3.859262 -38.228035 87 61 48 
-9.810369 -3.863140 -38.266457 90 63 51 
-9.896570 -3.859262 -38.228035 93 67 55 
-9.982598 -3.855391 -38.189693 88 65 53 
-10.068454 -3.851527 -38.151424 81 60 49 
-10.143984 -3.843824 -38.075123 80 61 49 
-10.158383 -3.813318 -37.772938 83 65 51 
-10.253291 -3.813318 -37.772938 83 66 51 
-10.348198 -3.813318 -37.772938 83 67 51 
-11.107457 -3.813318 -37.772938 33 32 28 
-11.202364 -3.813318 -37.772938 34 34 32 
-11.297272 -3.813318 -37.772938 36 37 32 
-11.392179 -3.813318 -37.772938 32 33 27 
-11.487086 -3.813318 -37.772938 40 41 35 
-11.581993 -3.813318 -37.772938 40 41 33 
-11.676901 -3.813318 -37.772938 36 37 29 
-11.771809 -3.813318 -37.772938 43 44 38 
-11.866715 -3.813318 -37.772938 52 52 48 
15.050281 -6.458182 -62.418236 181 165 175 
14.820562 -6.426576 -62.112762 182 166 176 
14.664499 -6.426576 -62.112762 182 166 176 
14.414378 -6.384912 -61.710087 183 166 177 
14.144702 -6.333587 -61.214024 183 167 177 
6.355495 -3.908225 -37.772938 182 168 182 
6.260588 -3.908225 -37.772938 182 168 182 
6.165681 -3.908225 -37.772938 183 169 182 
6.070774 -3.908225 -37.772938 182 168 181 
5.975866 -3.908225 -37.772938 182 167 180 
5.880959 -3.908225 -37.772938 182 167 180 
5.786051 -3.908225 -37.772938 183 168 181 
5.691144 -3.908225 -37.772938 184 169 182 
5.596237 -3.908225 -37.772938 186 168 181 
5.501329 -3.908225 -37.772938 186 168 181 
5.406422 -3.908225 -37.772938 186 168 181 
5.311515 -3.908225 -37.772938 186 168 181 
8.622173 -14.221990 -137.455322 45 38 38 
8.306794 -14.273519 -137.953339 47 40 36 
7.960176 -14.273519 -137.953339 56 46 40 
8.576906 -16.079556 -155.408661 70 56 48 
8.219981 -16.145454 -156.045578 86 68 58 
7.925348 -16.346436 -157.988068 101 76 66 
7.591390 -16.483227 -159.310135 108 76 67 
7.251796 -16.622326 -160.654526 112 74 67 
7.026013 -17.054073 -164.827377 117 76 70 
11.148485 -28.755409 -277.920593 120 78 72 
10.605006 -29.181416 -282.037933 121 79 73 
9.751892 -28.755409 -277.920593 123 81 75 
7.609464 -24.168657 -233.589706 126 83 77 
6.467096 -22.257011 -215.113693 131 86 80 
5.670321 -21.294546 -205.811478 137 91 84 
5.153204 -21.294546 -205.811478 140 93 86 
4.421011 -20.306656 -196.263519 139 92 84 
3.201721 -16.552485 -159.979507 138 91 81 
2.776429 -16.414547 -158.646347 139 92 82 
2.377818 -16.414547 -158.646347 139 94 82 
1.979207 -16.414547 -158.646347 140 95 83 
1.574038 -16.346436 -157.988068 144 100 87 
1.172217 -16.278889 -157.335220 139 95 82 
0.776900 -16.278889 -157.335220 131 89 75 
0.381584 -16.278889 -157.335220 126 84 70 
-0.013565 -16.079556 -155.408661 122 80 68 
-0.402398 -16.014191 -154.776917 117 77 64 
-0.784905 -15.885045 -153.528717 113 73 60 
-1.138522 -15.448985 -149.314209 108 70 59 
-1.490308 -15.210390 -147.008194 100 63 55 
-1.831393 -14.979053 -144.772324 92 58 51 
-2.154190 -14.699594 -142.071350 88 56 48 
-2.492554 -14.590708 -141.018967 87 58 49 
-2.825942 -14.483423 -139.982071 82 56 46 
-3.166018 -14.430370 -139.469315 78 52 43 
-3.516445 -14.430370 -139.469315 80 53 46 
-1.644456 -3.975269 -38.420910 65 30 27 
-1.727049 -3.943434 -38.113235 65 30 28 
-1.806537 -3.908225 -37.772938 64 28 27 
-1.901444 -3.908225 -37.772938 63 27 27 
-7.404654 -7.085416 -68.480438 63 30 25 
-7.576716 -7.085416 -68.480438 63 28 24 
-7.721005 -7.060020 -68.234985 62 28 23 
-7.878332 -7.047390 -68.112923 62 28 23 
-8.020774 -7.022266 -67.870094 61 28 23 
-8.118941 -6.960232 -67.270538 58 28 22 
-8.287963 -6.960232 -67.270538 55 28 21 
-5.700734 -4.426394 -42.781036 50 26 18 
-5.730954 -4.367507 -42.211887 49 26 17 
-5.792065 -4.333874 -41.886822 49 26 18 
-5.877909 -4.319617 -41.749039 50 27 19 
-5.976254 -4.314886 -41.703312 51 28 20 
-6.087705 -4.319617 -41.749039 49 28 19 
-6.199400 -4.324359 -41.794865 47 27 18 
-6.297500 -4.319617 -41.749039 45 25 15 
-6.395385 -4.314886 -41.703312 43 25 13 
-6.500167 -4.314886 -41.703312 43 25 13 
-6.587403 -4.107916 -39.702942 55 35 23 
-8.808326 -4.073931 -39.374481 111 78 61 
-8.816088 -4.032232 -38.971466 107 74 58 
-8.841609 -3.999483 -38.654945 102 70 53 
-8.884613 -3.975269 -38.420910 96 65 47 
-8.972095 -3.971261 -38.382179 90 61 45 
-9.050286 -3.963271 -38.304951 87 58 42 
-9.137338 -3.959288 -38.266457 87 58 42 
-9.205729 -3.947386 -38.151424 86 59 42 
-9.292276 -3.943434 -38.113235 85 59 42 
-9.304217 -3.908225 -37.772938 87 64 47 
-9.399124 -3.908225 -37.772938 88 65 49 
-9.494032 -3.908225 -37.772938 85 62 46 
-9.588940 -3.908225 -37.772938 82 59 45 
-9.771089 -3.943434 -38.113235 84 61 48 
-9.876738 -3.947386 -38.151424 86 63 50 
-9.972596 -3.947386 -38.151424 85 63 51 
-10.058375 -3.943434 -38.113235 82 61 50 
-10.063476 -3.908225 -37.772938 83 64 52 
-10.158383 -3.908225 -37.772938 82 64 50 
-10.253291 -3.908225 -37.772938 80 63 48 
-10.348198 -3.908225 -37.772938 83 67 51 
-11.100650 -3.939491 -38.075123 39 36 31 
-11.107457 -3.908225 -37.772938 34 33 28 
-11.202364 -3.908225 -37.772938 30 31 26 
-11.297272 -3.908225 -37.772938 29 31 25 
-11.392179 -3.908225 -37.772938 34 37 30 
-11.487086 -3.908225 -37.772938 34 36 27 
-11.581993 -3.908225 -37.772938 34 35 27 
-11.676901 -3.908225 -37.772938 33 34 26 
-11.771809 -3.908225 -37.772938 33 34 28 
-11.866715 -3.908225 -37.772938 37 37 33 
-11.961623 -3.908225 -37.772938 46 45 44 
15.099788 -6.636773 -62.623558 182 166 176 
14.893450 -6.615013 -62.418236 181 165 176 
14.736619 -6.615013 -62.418236 181 165 176 
14.579789 -6.615013 -62.418236 182 165 177 
14.190331 -6.508319 -61.411488 182 165 177 
6.355495 -4.003133 -37.772938 181 168 179 
6.260588 -4.003133 -37.772938 182 168 180 
6.165681 -4.003133 -37.772938 182 168 181 
6.070774 -4.003133 -37.772938 181 167 180 
5.975866 -4.003133 -37.772938 180 166 179 
5.880959 -4.003133 -37.772938 180 166 179 
5.786051 -4.003133 -37.772938 181 167 180 
5.691144 -4.003133 -37.772938 183 168 181 
5.596237 -4.003133 -37.772938 185 168 180 
5.501329 -4.003133 -37.772938 185 168 180 
5.406422 -4.003133 -37.772938 186 168 180 
5.311515 -4.003133 -37.772938 186 168 180 
9.145242 -13.317352 -125.660469 54 46 49 
8.714468 -13.143836 -124.023201 48 41 45 
8.402850 -13.143836 -124.023201 45 39 44 
8.091233 -13.143836 -124.023201 38 33 36 
8.622173 -14.567356 -137.455322 36 31 31 
8.398078 -14.780797 -139.469315 41 35 32 
8.967382 -16.470032 -155.408661 52 43 38 
8.612058 -16.537531 -156.045578 68 56 49 
8.322305 -16.743393 -157.988068 87 70 62 
8.059109 -17.025982 -160.654526 101 78 69 
7.655452 -17.025982 -160.654526 107 78 68 
7.344768 -17.244265 -162.714203 110 75 66 
12.022289 -29.890057 -282.037933 113 75 68 
11.313647 -29.890057 -282.037933 115 76 69 
10.450189 -29.453707 -277.920593 116 76 69 
9.027089 -27.264580 -257.264343 118 77 71 
7.703991 -25.063091 -236.491440 122 80 74 
6.616624 -23.324612 -220.087418 128 84 78 
5.994339 -23.058044 -217.572128 134 87 81 
3.201721 -16.954445 -159.979507 138 91 81 
2.788046 -16.883505 -159.310135 141 95 83 
2.387767 -16.883505 -159.310135 143 98 85 
1.987488 -16.883505 -159.310135 144 100 87 
1.580596 -16.813158 -158.646347 149 105 92 
1.177081 -16.743393 -157.988068 141 97 84 
0.776900 -16.674206 -157.335220 131 89 75 
0.381584 -16.674206 -157.335220 127 85 72 
-0.013620 -16.537531 -156.045578 122 81 69 
-0.404041 -16.470032 -155.408661 116 76 65 
-0.794516 -16.470032 -155.408661 109 69 59 
-1.161293 -16.140631 -152.300491 102 65 56 
-1.507772 -15.762335 -148.730942 92 58 49 
-1.852524 -15.519837 -146.442780 84 54 46 
-2.170387 -15.169765 -143.139557 79 51 42 
-2.511155 -15.056559 -142.071350 74 49 40 
-2.836370 -14.889881 -140.498611 67 45 36 
-3.166018 -14.780797 -139.469315 61 40 31 
-3.516445 -14.780797 -139.469315 62 40 32 
-1.555770 -4.092452 -38.615742 59 25 23 
-1.644456 -4.071804 -38.420910 58 24 22 
-1.733992 -4.055435 -38.266457 60 26 25 
-1.806537 -4.003133 -37.772938 64 28 27 
-1.901444 -4.003133 -37.772938 66 28 27 
-7.258702 -7.283678 -68.727661 71 33 30 
-7.404654 -7.257478 -68.480438 72 33 31 
-7.563113 -7.244448 -68.357491 75 35 33 
-7.721005 -7.231465 -68.234985 78 38 36 
-7.864263 -7.205639 -67.991287 80 40 38 
-8.020774 -7.192794 -67.870094 80 41 38 
-8.162204 -7.167243 -67.628990 76 39 36 
-6.199400 -4.429372 -41.794865 46 23 13 
-6.297500 -4.424515 -41.749039 46 22 12 
-6.395385 -4.419669 -41.703312 45 24 13 
-6.471814 -4.400390 -41.521400 46 25 14 
-6.576139 -4.400390 -41.521400 47 27 16 
-6.587403 -4.207672 -39.702942 62 40 29 
-6.652475 -4.185848 -39.497017 68 46 35 
-8.763016 -4.151397 -39.171936 109 76 59 
-8.816088 -4.130151 -38.971466 105 74 56 
-8.841609 -4.096607 -38.654945 101 70 52 
-8.875656 -4.067699 -38.382179 98 67 49 
-8.963059 -4.063603 -38.343529 92 63 47 
-9.041190 -4.055435 -38.266457 88 59 43 
-9.119008 -4.047299 -38.189693 85 56 40 
-9.196514 -4.039197 -38.113235 83 56 39 
-9.209310 -4.003133 -37.772938 83 57 42 
-9.304217 -4.003133 -37.772938 87 64 48 
-9.399124 -4.003133 -37.772938 88 65 49 
-9.494032 -4.003133 -37.772938 84 61 47 
-9.588940 -4.003133 -37.772938 81 58 44 
-9.683846 -4.003133 -37.772938 81 59 45 
-9.856984 -4.035158 -38.075123 81 60 45 
-9.952651 -4.035158 -38.075123 79 60 46 
-9.968569 -4.003133 -37.772938 80 61 47 
-10.063476 -4.003133 -37.772938 83 65 51 
-10.158383 -4.003133 -37.772938 87 70 55 
-10.253291 -4.003133 -37.772938 83 67 52 
-10.348198 -4.003133 -37.772938 77 61 46 
-10.443106 -4.003133 -37.772938 73 59 44 
-10.727827 -4.003133 -37.772938 37 34 22 
-11.100650 -4.035158 -38.075123 35 34 29 
-11.107457 -4.003133 -37.772938 34 33 28 
-11.202364 -4.003133 -37.772938 31 32 27 
-11.297272 -4.003133 -37.772938 30 31 25 
-11.392179 -4.003133 -37.772938 28 31 22 
-11.487086 -4.003133 -37.772938 27 30 21 
-11.581993 -4.003133 -37.772938 31 32 24 
-11.676901 -4.003133 -37.772938 34 35 28 
-11.771809 -4.003133 -37.772938 37 38 33 
-11.866715 -4.003133 -37.772938 38 38 34 
-11.961623 -4.003133 -37.772938 37 35 36 
-12.056530 -4.003133 -37.772938 40 39 39 
15.099788 -6.794119 -62.623558 182 166 176 
14.942442 -6.794119 -62.623558 181 165 176 
14.785095 -6.794119 -62.623558 181 165 176 
14.627748 -6.794119 -62.623558 181 164 176 
14.213255 -6.673383 -61.510700 181 164 176 
6.355495 -4.098040 -37.772938 181 168 178 
6.260588 -4.098040 -37.772938 181 168 178 
6.165681 -4.098040 -37.772938 181 167 179 
6.070774 -4.098040 -37.772938 181 167 179 
5.975866 -4.098040 -37.772938 180 167 179 
5.880959 -4.098040 -37.772938 179 166 179 
5.786051 -4.098040 -37.772938 180 166 180 
5.691144 -4.098040 -37.772938 181 167 180 
5.596237 -4.098040 -37.772938 182 168 179 
5.501329 -4.098040 -37.772938 182 168 179 
5.406422 -4.098040 -37.772938 184 169 180 
5.311515 -4.098040 -37.772938 184 168 180 
9.175525 -13.678226 -126.076569 42 34 36 
8.800467 -13.588238 -125.247116 37 31 33 
8.457952 -13.543686 -124.836472 38 33 37 
8.091233 -13.455454 -124.023201 40 35 38 
7.754357 -13.411767 -123.620529 40 36 36 
8.398078 -15.131225 -139.469315 45 40 38 
8.796823 -18.117651 -166.996155 79 64 57 
8.377232 -18.117651 -166.996155 94 73 65 
7.957642 -18.117651 -166.996155 103 76 67 
12.545077 -30.152002 -277.920593 104 72 63 
12.022289 -30.598700 -282.037933 107 71 63 
11.148485 -30.152002 -277.920593 110 72 65 
10.153729 -29.296627 -270.036316 113 73 66 
9.027089 -27.910975 -257.264343 116 76 69 
8.380693 -27.910975 -257.264343 121 80 74 
3.201721 -17.356405 -159.979507 139 94 83 
2.799760 -17.356405 -159.979507 145 100 87 
2.387767 -17.283783 -159.310135 149 105 92 
1.987488 -17.283783 -159.310135 150 107 92 
1.587210 -17.283783 -159.310135 148 104 89 
1.181985 -17.211767 -158.646347 139 95 82 
0.780124 -17.140350 -157.988068 130 88 74 
0.381584 -17.069523 -157.335220 126 84 73 
-0.013676 -16.999277 -156.687744 121 81 70 
-0.407366 -16.999277 -156.687744 114 74 65 
-0.801056 -16.999277 -156.687744 105 67 58 
-1.184992 -16.860508 -155.408661 98 61 53 
-1.543959 -16.523296 -152.300491 87 55 47 
-1.881470 -16.136032 -148.730942 79 51 42 
-2.220473 -15.887786 -146.442780 72 46 37 
-2.530036 -15.529415 -143.139557 64 41 31 
-2.868120 -15.413524 -142.071350 58 36 27 
-3.189383 -15.242894 -140.498611 52 32 23 
-1.652795 -4.189477 -38.615742 72 35 34 
-1.740991 -4.168339 -38.420910 80 41 41 
-1.830140 -4.151582 -38.266457 91 48 48 
-1.928225 -4.155759 -38.304951 97 52 52 
-7.404654 -7.429540 -68.480438 109 60 58 
-7.576716 -7.429540 -68.480438 111 61 60 
-7.721005 -7.402911 -68.234985 114 64 63 
-7.892450 -7.402911 -68.234985 115 66 65 
-8.035096 -7.376472 -67.991287 113 65 64 
-8.162204 -7.337166 -67.628990 108 62 61 
-8.258780 -7.272578 -67.033669 101 59 58 
-5.590492 -4.232402 -39.011395 71 39 33 
-5.682688 -4.228070 -38.971466 69 37 30 
-5.780607 -4.228070 -38.971466 65 35 27 
-5.878526 -4.228070 -38.971466 63 34 26 
-6.360552 -4.499809 -41.476170 64 36 26 
-6.471814 -4.504716 -41.521400 66 38 27 
-6.612193 -4.529413 -41.749039 67 41 30 
-6.652475 -4.285088 -39.497017 80 56 44 
-6.709951 -4.258582 -39.252705 84 61 49 
-6.801565 -4.254196 -39.212280 86 62 48 
-6.900088 -4.254196 -39.212280 87 61 47 
-8.736053 -4.236743 -39.051407 108 77 57 
-8.798078 -4.219432 -38.891853 105 74 54 
-8.841609 -4.193730 -38.654945 103 72 54 
-8.875656 -4.164137 -38.382179 100 71 53 
-8.963059 -4.159944 -38.343529 97 68 52 
-9.041190 -4.151582 -38.266457 91 62 46 
-9.119008 -4.143254 -38.189693 85 57 43 
-9.196514 -4.134959 -38.113235 83 55 41 
-9.209310 -4.098040 -37.772938 82 56 43 
-9.304217 -4.098040 -37.772938 86 59 48 
-9.399124 -4.098040 -37.772938 84 60 48 
-9.494032 -4.098040 -37.772938 80 57 43 
-9.588940 -4.098040 -37.772938 79 57 42 
-9.683846 -4.098040 -37.772938 81 60 43 
-9.778754 -4.098040 -37.772938 80 60 43 
-9.873661 -4.098040 -37.772938 79 61 43 
-9.968569 -4.098040 -37.772938 80 62 44 
-10.063476 -4.098040 -37.772938 83 66 49 
-10.158383 -4.098040 -37.772938 90 73 58 
-10.253291 -4.098040 -37.772938 84 68 53 
-10.348198 -4.098040 -37.772938 70 55 42 
-10.443106 -4.098040 -37.772938 61 47 36 
-10.538013 -4.098040 -37.772938 59 46 35 
-10.632920 -4.098040 -37.772938 50 43 31 
-10.727827 -4.098040 -37.772938 40 38 26 
-10.822735 -4.098040 -37.772938 33 31 22 
-10.917643 -4.098040 -37.772938 31 30 22 
-11.012549 -4.098040 -37.772938 31 31 25 
-11.107457 -4.098040 -37.772938 32 33 27 
-11.202364 -4.098040 -37.772938 33 34 28 
-11.297272 -4.098040 -37.772938 34 35 29 
-11.392179 -4.098040 -37.772938 26 29 20 
-11.487086 -4.098040 -37.772938 33 36 27 
-11.581993 -4.098040 -37.772938 36 37 29 
-11.676901 -4.098040 -37.772938 32 33 26 
-11.771809 -4.098040 -37.772938 32 33 29 
-11.866715 -4.098040 -37.772938 36 36 33 
-11.961623 -4.098040 -37.772938 38 38 37 
-12.056530 -4.098040 -37.772938 37 37 36 
-12.151438 -4.098040 -37.772938 40 39 37 
15.099788 -6.951465 -62.623558 181 165 176 
14.942442 -6.951465 -62.623558 181 165 177 
14.785095 -6.951465 -62.623558 181 165 178 
14.627748 -6.951465 -62.623558 181 164 177 
14.566233 -6.997501 -63.038284 180 163 176 
6.355495 -4.192947 -37.772938 180 167 177 
6.260588 -4.192947 -37.772938 181 168 178 
6.165681 -4.192947 -37.772938 180 168 178 
6.070774 -4.192947 -37.772938 180 168 178 
5.975866 -4.192947 -37.772938 179 167 179 
5.880959 -4.192947 -37.772938 178 166 178 
5.786051 -4.192947 -37.772938 179 167 181 
5.691144 -4.192947 -37.772938 180 168 180 
5.596237 -4.192947 -37.772938 179 168 178 
5.501329 -4.192947 -37.772938 180 168 178 
5.406422 -4.192947 -37.772938 181 169 179 
5.311515 -4.192947 -37.772938 182 169 179 
9.175525 -13.995003 -126.076569 40 32 32 
8.800467 -13.902930 -125.247116 39 33 34 
8.457952 -13.857347 -124.836472 40 35 37 
8.064962 -13.722373 -123.620529 40 36 38 
7.754357 -13.722373 -123.620529 45 41 41 
7.467998 -13.767072 -124.023201 54 49 47 
13.745017 -32.018871 -288.447906 96 71 64 
12.730930 -31.307341 -282.037933 96 67 59 
11.933889 -31.077139 -279.964142 99 66 58 
10.832215 -29.975113 -270.036316 105 68 60 
10.011719 -29.555882 -266.259613 110 71 64 
9.277842 -29.350632 -264.410583 115 76 69 
3.828911 -18.868263 -169.978226 131 87 79 
3.215230 -17.833296 -160.654526 136 92 82 
2.799760 -17.758366 -159.979507 143 99 86 
2.387767 -17.684063 -159.310135 147 103 90 
1.995839 -17.758366 -159.979507 148 105 89 
1.587210 -17.684063 -159.310135 140 97 81 
1.186931 -17.684063 -159.310135 133 89 76 
0.783375 -17.610378 -158.646347 125 83 71 
0.383167 -17.537306 -157.988068 124 82 70 
-0.013847 -17.610378 -158.646347 118 78 70 
-1.744512 -4.273499 -38.498608 113 64 67 
-1.833826 -4.256285 -38.343529 121 70 71 
-1.930167 -4.256285 -38.343529 126 72 73 
-2.026508 -4.256285 -38.343529 130 74 75 
-3.145115 -4.477215 -40.333817 115 58 59 
-8.035096 -7.547305 -67.991287 129 72 74 
-4.632380 -4.260576 -38.382179 123 69 70 
-4.653757 -4.192947 -37.772938 118 66 66 
-4.748664 -4.192947 -37.772938 113 66 64 
-4.843572 -4.192947 -37.772938 110 66 63 
-4.938479 -4.192947 -37.772938 108 65 63 
-5.033386 -4.192947 -37.772938 105 62 60 
-5.128294 -4.192947 -37.772938 101 60 57 
-5.223201 -4.192947 -37.772938 98 57 54 
-5.694345 -4.334863 -39.051407 92 54 49 
-5.780607 -4.325989 -38.971466 88 51 44 
-5.878526 -4.325989 -38.971466 85 48 40 
-5.988704 -4.334863 -39.051407 85 51 42 
-6.507295 -4.634310 -41.749039 87 53 44 
-6.652475 -4.384326 -39.497017 94 67 54 
-6.709951 -4.357207 -39.252705 96 68 55 
-6.801565 -4.352720 -39.212280 95 68 54 
-6.900088 -4.352720 -39.212280 93 66 51 
-8.736053 -4.334863 -39.051407 106 75 55 
-8.798078 -4.317151 -38.891853 101 73 52 
-8.841609 -4.290854 -38.654945 100 71 53 
-8.893587 -4.269183 -38.459721 101 72 54 
-8.972095 -4.260576 -38.382179 97 70 53 
-9.050286 -4.252003 -38.304951 89 62 46 
-9.119008 -4.239209 -38.189693 84 56 42 
-9.196514 -4.230721 -38.113235 80 54 41 
-9.209310 -4.192947 -37.772938 81 54 43 
-9.304217 -4.192947 -37.772938 83 57 47 
-9.399124 -4.192947 -37.772938 80 57 44 
-9.494032 -4.192947 -37.772938 78 55 41 
-9.588940 -4.192947 -37.772938 78 57 42 
-9.683846 -4.192947 -37.772938 80 61 43 
-9.778754 -4.192947 -37.772938 80 62 42 
-9.873661 -4.192947 -37.772938 80 63 43 
-9.968569 -4.192947 -37.772938 82 65 45 
-10.063476 -4.192947 -37.772938 83 67 49 
-10.158383 -4.192947 -37.772938 88 72 57 
-10.253291 -4.192947 -37.772938 82 68 54 
-10.348198 -4.192947 -37.772938 68 54 42 
-10.443106 -4.192947 -37.772938 54 40 30 
-10.538013 -4.192947 -37.772938 41 30 21 
-10.632920 -4.192947 -37.772938 36 31 20 
-10.727827 -4.192947 -37.772938 32 29 20 
-10.822735 -4.192947 -37.772938 29 29 21 
-10.917643 -4.192947 -37.772938 32 32 24 
-11.012549 -4.192947 -37.772938 33 34 28 
-11.107457 -4.192947 -37.772938 33 34 28 
-11.202364 -4.192947 -37.772938 30 31 25 
-11.297272 -4.192947 -37.772938 29 31 24 
-11.392179 -4.192947 -37.772938 33 36 27 
-11.487086 -4.192947 -37.772938 31 34 25 
-11.581993 -4.192947 -37.772938 33 34 27 
-11.676901 -4.192947 -37.772938 35 36 30 
-11.771809 -4.192947 -37.772938 33 34 30 
-11.866715 -4.192947 -37.772938 31 31 29 
-11.961623 -4.192947 -37.772938 33 33 31 
-12.056530 -4.192947 -37.772938 39 39 38 
-12.151438 -4.192947 -37.772938 43 42 40 
-12.246345 -4.192947 -37.772938 41 40 38 
15.099788 -7.108812 -62.623558 180 164 175 
14.942442 -7.108812 -62.623558 181 165 177 
14.785095 -7.108812 -62.623558 181 165 178 
14.627748 -7.108812 -62.623558 181 164 177 
6.355495 -4.287855 -37.772938 180 167 176 
6.260588 -4.287855 -37.772938 180 167 177 
6.165681 -4.287855 -37.772938 180 168 177 
6.070774 -4.287855 -37.772938 180 168 178 
5.975866 -4.287855 -37.772938 179 167 179 
5.880959 -4.287855 -37.772938 178 166 178 
5.786051 -4.287855 -37.772938 178 166 180 
5.691144 -4.287855 -37.772938 179 167 179 
5.596237 -4.287855 -37.772938 178 168 177 
5.501329 -4.287855 -37.772938 180 170 178 
5.406422 -4.287855 -37.772938 180 169 178 
5.311515 -4.287855 -37.772938 179 166 175 
9.267587 -14.455377 -127.341545 40 33 33 
8.858747 -14.311780 -126.076569 44 38 38 
8.485773 -14.217624 -125.247116 45 40 41 
8.117675 -14.124698 -124.428505 44 40 41 
7.779615 -14.078689 -124.023201 50 46 47 
7.467998 -14.078689 -124.023201 56 51 50 
12.825937 -32.254906 -284.142700 91 64 56 
11.846781 -31.548595 -277.920593 95 64 55 
10.832215 -30.653599 -270.036316 100 66 57 
9.942193 -30.014982 -264.410583 106 70 62 
9.277842 -30.014982 -264.410583 111 74 66 
3.811894 -19.209589 -169.222763 134 91 82 
3.215230 -18.236952 -160.654526 137 93 82 
2.799760 -18.160326 -159.979507 140 96 83 
2.387767 -18.084341 -159.310135 143 99 86 
1.987488 -18.084341 -159.310135 146 102 88 
1.587210 -18.084341 -159.310135 136 92 78 
1.186931 -18.084341 -159.310135 130 86 73 
0.786652 -18.084341 -159.310135 124 82 70 
0.384764 -18.008989 -158.646347 122 80 68 
-1.839383 -4.365816 -38.459721 140 77 81 
-1.930167 -4.352626 -38.343529 141 79 80 
-2.024469 -4.348247 -38.304951 144 80 81 
-3.043773 -4.578557 -40.333817 148 80 82 
-3.112147 -4.530563 -39.911030 145 76 79 
-3.202356 -4.516361 -39.785915 142 74 76 
-4.662854 -4.478920 -39.456085 138 74 75 
-4.558850 -4.287855 -37.772938 136 73 74 
-4.653757 -4.287855 -37.772938 133 72 73 
-4.748664 -4.287855 -37.772938 130 72 72 
-4.843572 -4.287855 -37.772938 125 72 70 
-4.938479 -4.287855 -37.772938 122 70 69 
-5.033386 -4.287855 -37.772938 121 71 69 
-5.128294 -4.287855 -37.772938 121 71 69 
-5.223201 -4.287855 -37.772938 117 68 65 
-5.741455 -4.469656 -39.374481 110 65 60 
-5.792465 -4.432982 -39.051407 108 65 59 
-5.890584 -4.432982 -39.051407 105 64 58 
-6.050763 -4.478920 -39.456085 105 66 58 
-6.873511 -4.632537 -40.809349 107 74 59 
-6.938862 -4.607844 -40.591816 108 75 60 
-7.040852 -4.607844 -40.591816 109 76 61 
-7.165761 -4.622628 -40.722057 106 75 59 
-8.736053 -4.432982 -39.051407 102 74 53 
-8.798078 -4.414870 -38.891853 98 70 49 
-8.859598 -4.396905 -38.733593 96 67 49 
-8.911591 -4.374653 -38.537575 95 68 49 
-8.990220 -4.365816 -38.459721 91 66 49 
-9.068533 -4.357014 -38.382179 86 61 46 
-9.146530 -4.348247 -38.304951 82 56 43 
-9.214963 -4.335163 -38.189693 80 54 41 
-9.292276 -4.326484 -38.113235 81 54 44 
-9.378651 -4.322157 -38.075123 83 57 47 
-9.474318 -4.322157 -38.075123 81 57 45 
-9.494032 -4.287855 -37.772938 77 55 41 
-9.588940 -4.287855 -37.772938 77 57 42 
-9.683846 -4.287855 -37.772938 80 61 43 
-9.778754 -4.287855 -37.772938 81 63 44 
-9.873661 -4.287855 -37.772938 80 63 43 
-10.063476 -4.287855 -37.772938 84 67 50 
-10.158383 -4.287855 -37.772938 85 69 53 
-10.253291 -4.287855 -37.772938 85 71 57 
-10.348198 -4.287855 -37.772938 74 61 49 
-10.443106 -4.287855 -37.772938 51 38 29 
-10.538013 -4.287855 -37.772938 36 26 17 
-10.632920 -4.287855 -37.772938 31 26 17 
-10.727827 -4.287855 -37.772938 29 29 19 
-10.822735 -4.287855 -37.772938 30 30 21 
-10.917643 -4.287855 -37.772938 31 31 23 
-11.012549 -4.287855 -37.772938 31 32 25 
-11.107457 -4.287855 -37.772938 31 32 26 
-11.202364 -4.287855 -37.772938 30 31 25 
-11.297272 -4.287855 -37.772938 30 31 25 
-11.392179 -4.287855 -37.772938 29 32 25 
-11.487086 -4.287855 -37.772938 29 32 25 
-11.581993 -4.287855 -37.772938 30 31 25 
-11.676901 -4.287855 -37.772938 30 31 25 
-11.771809 -4.287855 -37.772938 31 31 28 
-11.866715 -4.287855 -37.772938 32 32 30 
-11.961623 -4.287855 -37.772938 32 32 30 
-12.056530 -4.287855 -37.772938 34 34 32 
-12.151438 -4.287855 -37.772938 37 37 35 
-12.246345 -4.287855 -37.772938 39 39 37 
15.099788 -7.266158 -62.623558 179 163 174 
14.942442 -7.266158 -62.623558 179 163 175 
14.785095 -7.266158 -62.623558 179 163 176 
14.603729 -7.254227 -62.520725 179 163 176 
14.213255 -7.137034 -61.510700 179 163 175 
6.355495 -4.382762 -37.772938 180 167 176 
6.260588 -4.382762 -37.772938 180 167 176 
6.165681 -4.382762 -37.772938 178 166 176 
6.070774 -4.382762 -37.772938 178 166 176 
5.975866 -4.382762 -37.772938 178 166 178 
5.880959 -4.382762 -37.772938 178 166 178 
5.786051 -4.382762 -37.772938 177 165 179 
5.691144 -4.382762 -37.772938 177 165 177 
5.596237 -4.382762 -37.772938 178 167 177 
5.501329 -4.382762 -37.772938 179 168 176 
5.406422 -4.382762 -37.772938 180 168 176 
5.311515 -4.382762 -37.772938 179 166 175 
9.425199 -15.026612 -129.507217 42 34 35 
8.947631 -14.775331 -127.341545 44 38 38 
8.598917 -14.726081 -126.917076 46 40 40 
8.198048 -14.580277 -125.660469 48 44 44 
7.830629 -14.484670 -124.836472 53 48 50 
13.020270 -33.468365 -288.447906 87 63 54 
11.933889 -32.484001 -279.964142 91 64 53 
10.680717 -30.893875 -266.259613 96 64 54 
9.739291 -30.053225 -259.014435 101 67 58 
8.966505 -29.649826 -255.537735 105 70 61 
3.778309 -19.461781 -167.731812 135 92 84 
3.215230 -18.640608 -160.654526 136 93 83 
2.799760 -18.562286 -159.979507 137 93 81 
2.387767 -18.484619 -159.310135 139 95 83 
1.987488 -18.484619 -159.310135 141 97 84 
1.587210 -18.484619 -159.310135 133 89 76 
1.186931 -18.484619 -159.310135 129 85 72 
0.786652 -18.484619 -159.310135 125 83 72 
-0.567991 -5.209698 -44.899910 103 64 57 
-0.676022 -5.173096 -44.584454 102 63 56 
-0.794557 -5.215849 -44.952919 102 64 57 
-1.839383 -4.462449 -38.459721 150 79 85 
-1.930167 -4.448967 -38.343529 148 80 83 
-2.018377 -4.431118 -38.189693 150 79 83 
-2.110099 -4.422246 -38.113235 154 81 85 
-2.186166 -4.382762 -37.772938 159 83 88 
-2.835879 -4.844105 -41.749039 166 86 93 
-2.934342 -4.833506 -41.657684 166 88 93 
-3.012641 -4.791566 -41.296230 166 88 93 
-3.063243 -4.709834 -40.591816 161 86 90 
-3.131844 -4.660152 -40.163631 160 84 88 
-3.202356 -4.616326 -39.785915 162 84 89 
-3.826135 -4.645451 -40.036934 161 87 91 
-3.898039 -4.611507 -39.744389 160 86 90 
-4.687140 -4.601900 -39.661587 144 77 77 
-4.653757 -4.382762 -37.772938 140 75 76 
-4.748664 -4.382762 -37.772938 138 76 75 
-4.843572 -4.382762 -37.772938 134 76 74 
-4.938479 -4.382762 -37.772938 132 74 73 
-5.033386 -4.382762 -37.772938 131 75 74 
-5.852490 -4.578056 -39.456085 118 71 65 
-6.910545 -4.760586 -41.029228 119 80 63 
-6.991034 -4.745246 -40.897018 119 82 64 
-7.078585 -4.735074 -40.809349 118 81 63 
-7.181121 -4.735074 -40.809349 114 79 60 
-8.637933 -4.531102 -39.051407 104 73 53 
-8.727102 -4.526459 -39.011395 100 72 51 
-8.798078 -4.512589 -38.891853 96 69 48 
-8.868620 -4.498803 -38.773037 94 67 48 
-8.938732 -4.485101 -38.654945 92 66 49 
-9.008419 -4.471482 -38.537575 87 64 48 
-9.086853 -4.462449 -38.459721 81 59 43 
-9.164970 -4.453452 -38.382179 79 56 42 
-9.233485 -4.440024 -38.266457 78 55 41 
-9.310917 -4.431118 -38.189693 80 54 42 
-9.406872 -4.431118 -38.189693 82 56 45 
-9.493304 -4.426678 -38.151424 80 56 43 
-9.579564 -4.422246 -38.113235 75 54 40 
-9.665650 -4.417824 -38.075123 75 56 40 
-10.253291 -4.382762 -37.772938 80 66 52 
-10.348198 -4.382762 -37.772938 71 58 45 
-10.443106 -4.382762 -37.772938 52 42 30 
-10.538013 -4.382762 -37.772938 39 32 21 
-10.632920 -4.382762 -37.772938 30 27 18 
-10.727827 -4.382762 -37.772938 28 28 18 
-10.822735 -4.382762 -37.772938 28 29 20 
-10.917643 -4.382762 -37.772938 29 30 22 
-11.012549 -4.382762 -37.772938 29 30 24 
-11.107457 -4.382762 -37.772938 29 30 24 
-11.202364 -4.382762 -37.772938 29 30 24 
-11.297272 -4.382762 -37.772938 28 29 23 
-11.392179 -4.382762 -37.772938 28 31 24 
-11.487086 -4.382762 -37.772938 28 30 24 
-11.581993 -4.382762 -37.772938 29 29 25 
-11.676901 -4.382762 -37.772938 29 29 25 
-11.771809 -4.382762 -37.772938 29 29 27 
-11.866715 -4.382762 -37.772938 29 29 27 
-11.961623 -4.382762 -37.772938 29 29 27 
-12.056530 -4.382762 -37.772938 30 30 29 
-12.151438 -4.382762 -37.772938 33 33 32 
-12.246345 -4.382762 -37.772938 36 36 35 
-12.341252 -4.382762 -37.772938 38 38 36 
15.099788 -7.423504 -62.623558 178 163 174 
14.942442 -7.423504 -62.623558 178 163 175 
14.785095 -7.423504 -62.623558 178 163 176 
14.603729 -7.411315 -62.520725 178 163 176 
14.190331 -7.279824 -61.411488 178 163 175 
6.450403 -4.477669 -37.772938 179 166 175 
6.355495 -4.477669 -37.772938 181 168 177 
6.260588 -4.477669 -37.772938 180 167 176 
6.165681 -4.477669 -37.772938 177 165 175 
6.070774 -4.477669 -37.772938 177 164 174 
5.975866 -4.477669 -37.772938 177 164 177 
5.880959 -4.477669 -37.772938 178 165 178 
5.786051 -4.477669 -37.772938 178 165 179 
5.691144 -4.477669 -37.772938 178 165 177 
5.596237 -4.477669 -37.772938 178 166 176 
5.501329 -4.477669 -37.772938 176 164 172 
5.406422 -4.477669 -37.772938 178 164 173 
4.143489 -4.549890 -38.382179 171 156 169 
3.982812 -4.477669 -37.772938 178 162 175 
13.020270 -34.193111 -288.447906 85 63 55 
12.022289 -33.433266 -282.037933 86 61 52 
10.606544 -31.343685 -264.410583 90 62 52 
9.739291 -30.704020 -259.014435 95 65 55 
8.675385 -29.308382 -247.241058 99 67 58 
3.778309 -19.883219 -167.731812 131 90 82 
3.356870 -19.883219 -167.731812 134 91 82 
2.387767 -18.884899 -159.310135 137 93 82 
1.987488 -18.884899 -159.310135 138 94 83 
1.580596 -18.806211 -158.646347 134 90 78 
1.181985 -18.806211 -158.646347 131 87 76 
-0.229548 -5.322513 -44.899910 115 74 68 
-0.342766 -5.328797 -44.952919 116 75 69 
-0.455177 -5.322513 -44.899910 115 74 68 
-0.566655 -5.309989 -44.794262 118 78 70 
-0.676022 -5.285118 -44.584454 124 81 74 
-0.788968 -5.291314 -44.636719 127 84 77 
-0.907504 -5.328797 -44.952919 131 88 82 
-1.021658 -5.335095 -45.006054 135 90 86 
-1.134739 -5.335095 -45.006054 138 90 87 
-1.932112 -4.549890 -38.382179 152 82 87 
-2.016355 -4.522536 -38.151424 151 80 86 
-2.091259 -4.477669 -37.772938 154 80 86 
-2.186166 -4.477669 -37.772938 159 81 89 
-2.281073 -4.477669 -37.772938 163 83 91 
-2.725006 -4.938174 -41.657684 162 81 88 
-2.823495 -4.927392 -41.566727 164 83 90 
-2.918377 -4.911306 -41.431038 165 86 92 
-2.999627 -4.874180 -41.117844 166 87 93 
-3.096252 -4.863676 -41.029228 166 87 93 
-3.165233 -4.811824 -40.591816 166 88 93 
-3.232758 -4.761066 -40.163631 169 90 96 
-3.753165 -4.781240 -40.333817 164 88 90 
-3.818105 -4.736087 -39.952908 160 86 87 
-3.898039 -4.711368 -39.744389 157 83 84 
-4.014662 -4.731122 -39.911030 156 82 83 
-4.843572 -4.477669 -37.772938 138 80 76 
-6.388937 -5.193891 -43.814869 126 78 73 
-6.439742 -5.146512 -43.415192 125 78 72 
-6.548825 -5.146512 -43.415192 125 80 74 
-6.874124 -4.911306 -41.431038 130 87 70 
-6.910545 -4.863676 -41.029228 131 88 71 
-6.991034 -4.848003 -40.897018 130 89 71 
-7.093791 -4.848003 -40.897018 127 87 69 
