-17.757132 -11.804993 -74.365471 60 69 74 
-17.943979 -11.804993 -74.365471 60 69 78 
-18.130829 -11.804993 -74.365471 56 65 74 
-18.317678 -11.804993 -74.365471 61 68 78 
-18.540739 -11.828094 -74.511002 66 73 83 
-18.691376 -11.804993 -74.365471 66 70 81 
-18.878223 -11.804993 -74.365471 63 67 78 
-20.311531 -12.335013 -77.704330 58 58 70 
-20.381983 -12.259953 -77.231483 56 56 68 
-20.451580 -12.185800 -76.764359 57 60 69 
-20.520342 -12.112538 -76.302849 59 62 71 
-20.712059 -12.112538 -76.302849 58 61 70 
-20.820326 -12.064184 -75.998245 60 63 72 
-11.306821 -6.492112 -40.897018 62 66 75 
-11.216807 -6.382425 -40.206043 60 64 73 
-11.317828 -6.382425 -40.206043 58 57 65 
-11.358876 -6.348904 -39.994877 50 49 57 
-11.459366 -6.348904 -39.994877 49 48 56 
-11.795266 -6.478196 -40.809349 49 48 56 
-16.382065 -6.852785 -43.169075 34 43 42 
-16.342300 -6.791187 -42.781036 36 45 44 
-16.303246 -6.730687 -42.399914 34 43 42 
-16.391525 -6.723200 -42.352749 35 44 43 
-16.516312 -6.730687 -42.399914 42 51 50 
-16.641376 -6.738190 -42.447182 53 61 64 
-16.710768 -6.723200 -42.352749 63 71 74 
-16.798496 -6.715729 -42.305691 66 73 79 
-16.886030 -6.708276 -42.258739 66 73 79 
9.012901 -6.091094 -37.772938 206 185 200 
8.917994 -6.091094 -37.772938 207 186 201 
8.823087 -6.091094 -37.772938 207 186 201 
8.728179 -6.091094 -37.772938 207 186 201 
8.633272 -6.091094 -37.772938 206 185 200 
8.538364 -6.091094 -37.772938 206 185 200 
8.443458 -6.091094 -37.772938 205 184 199 
8.348550 -6.091094 -37.772938 204 183 198 
8.253642 -6.091094 -37.772938 204 183 198 
8.158735 -6.091094 -37.772938 204 183 198 
8.063828 -6.091094 -37.772938 204 183 198 
7.968920 -6.091094 -37.772938 203 182 197 
7.874013 -6.091094 -37.772938 203 182 197 
7.779106 -6.091094 -37.772938 203 182 197 
7.684198 -6.091094 -37.772938 203 182 197 
7.589291 -6.091094 -37.772938 204 183 200 
7.494384 -6.091094 -37.772938 204 183 200 
7.399477 -6.091094 -37.772938 204 183 200 
7.304569 -6.091094 -37.772938 204 183 200 
7.209661 -6.091094 -37.772938 204 183 200 
7.114754 -6.091094 -37.772938 203 182 199 
7.019847 -6.091094 -37.772938 203 182 199 
6.924940 -6.091094 -37.772938 203 182 199 
6.830032 -6.091094 -37.772938 203 182 199 
6.735125 -6.091094 -37.772938 202 181 198 
6.640217 -6.091094 -37.772938 202 181 198 
6.545310 -6.091094 -37.772938 201 180 197 
6.450403 -6.091094 -37.772938 201 180 197 
6.355495 -6.091094 -37.772938 200 179 196 
6.260588 -6.091094 -37.772938 200 179 196 
6.165681 -6.091094 -37.772938 200 179 196 
6.070774 -6.091094 -37.772938 196 178 194 
5.975866 -6.091094 -37.772938 198 180 196 
5.880959 -6.091094 -37.772938 198 180 194 
2.621670 -6.739652 -41.794865 44 42 55 
2.522195 -6.754481 -41.886822 50 48 61 
2.427634 -6.784335 -42.071960 54 52 65 
2.327068 -6.799361 -42.165142 58 56 70 
2.221125 -6.799361 -42.165142 64 62 76 
2.119877 -6.814454 -42.258739 71 69 83 
7.623287 -25.797577 -159.979507 75 73 87 
7.191112 -25.689636 -159.310135 69 66 83 
6.544391 -24.757351 -153.528717 60 57 74 
6.085030 -24.461447 -151.693710 44 41 52 
5.636519 -24.172531 -149.902054 37 34 45 
5.475448 -25.163210 -156.045578 36 34 45 
-1.824638 -6.152127 -38.151424 95 75 74 
-1.920496 -6.152127 -38.151424 95 75 76 
-1.996351 -6.091094 -37.772938 96 76 77 
-2.091259 -6.091094 -37.772938 96 76 78 
-2.186166 -6.091094 -37.772938 95 75 77 
-2.281073 -6.091094 -37.772938 94 74 76 
-7.983295 -20.466078 -126.917076 94 74 76 
-8.302184 -20.466078 -126.917076 94 74 75 
-8.621073 -20.466078 -126.917076 94 74 75 
-8.939961 -20.466078 -126.917076 93 73 72 
-9.197533 -20.330540 -126.076569 92 72 71 
-9.451715 -20.196787 -125.247116 91 71 70 
-9.766409 -20.196787 -125.247116 90 70 69 
-8.473424 -13.583679 -84.237000 81 66 63 
-8.552624 -13.376521 -82.952339 80 65 62 
-8.537836 -13.035718 -80.838905 80 62 62 
-8.488634 -12.659429 -78.505409 79 61 61 
-8.562305 -12.479315 -77.388458 79 61 61 
-8.738987 -12.454002 -77.231483 79 61 61 
-8.861141 -12.353768 -76.609901 80 60 62 
-9.053630 -12.353768 -76.609901 79 59 61 
-8.782851 -11.265731 -69.862610 67 57 55 
-8.812853 -11.082713 -68.727661 61 51 49 
-8.921124 -11.003267 -68.234985 51 43 41 
-8.932488 -10.809547 -67.033669 43 35 33 
-9.021502 -10.715223 -66.448730 35 30 27 
-9.515574 -8.976350 -55.665382 25 29 30 
-9.613274 -8.937152 -55.422302 26 30 31 
-9.682060 -8.872577 -55.021854 34 39 42 
-9.721964 -8.783724 -54.470848 46 51 54 
-9.774920 -8.708969 -54.007267 50 55 59 
-9.840825 -8.647638 -53.626934 54 59 63 
-9.905807 -8.587165 -53.251919 54 59 63 
-9.997659 -8.551286 -53.029419 48 53 57 
-10.088745 -8.515705 -52.808769 40 43 50 
-10.151036 -8.457057 -52.445072 33 36 43 
-10.198523 -8.387736 -52.015194 31 34 41 
-10.273078 -8.342151 -51.732502 30 33 40 
-10.305050 -8.263557 -51.245117 33 34 38 
-10.419783 -8.252450 -51.176239 32 33 37 
-10.254232 -7.831407 -48.565208 35 35 37 
-10.258493 -7.742526 -48.014027 35 35 37 
-10.301191 -7.684384 -47.653469 34 34 36 
-10.394904 -7.665197 -47.534485 32 32 34 
-10.501228 -7.655640 -47.475216 34 35 39 
-10.660390 -7.684384 -47.653469 46 47 51 
-16.790094 -11.968466 -74.220512 53 56 61 
-17.264023 -12.038869 -74.657104 66 71 77 
-17.417452 -12.015309 -74.511002 64 69 75 
-17.570282 -11.991842 -74.365471 60 67 73 
-17.757132 -11.991842 -74.365471 63 70 76 
-17.943979 -11.991842 -74.365471 59 66 76 
-18.130829 -11.991842 -74.365471 56 63 73 
-18.317678 -11.991842 -74.365471 61 65 76 
-18.504526 -11.991842 -74.365471 63 67 78 
-18.691376 -11.991842 -74.365471 60 64 75 
-18.841425 -11.968466 -74.220512 59 63 74 
-18.990891 -11.945181 -74.076111 59 62 71 
-20.394775 -12.581605 -78.022789 55 58 67 
-20.506769 -12.530252 -77.704330 54 57 66 
-20.492897 -12.403683 -76.919441 58 61 70 
-20.561546 -12.328962 -76.456070 60 63 72 
-20.712059 -12.304255 -76.302849 57 61 70 
-20.820326 -12.255136 -75.998245 57 61 70 
-10.942464 -6.382352 -39.579128 56 63 71 
-10.861264 -6.277938 -38.931618 52 59 67 
-10.981541 -6.290802 -39.011395 55 53 66 
-11.113721 -6.310198 -39.131680 50 48 61 
-11.352046 -6.388994 -39.620316 51 49 60 
-11.584193 -6.462972 -40.079075 54 52 63 
-16.382065 -6.961251 -43.169075 36 44 46 
-16.342300 -6.898678 -42.781036 35 43 45 
-16.449791 -6.898678 -42.781036 37 45 47 
-16.501657 -6.875502 -42.637314 43 51 54 
-16.608788 -6.875502 -42.637314 51 59 62 
-16.715918 -6.875502 -42.637314 57 66 71 
-16.766720 -6.852481 -42.494556 61 70 75 
-16.817183 -6.829614 -42.352749 63 72 79 
-16.886030 -6.814454 -42.258739 62 71 78 
9.012901 -6.186002 -37.772938 206 185 200 
8.917994 -6.186002 -37.772938 206 185 200 
8.823087 -6.186002 -37.772938 207 186 201 
8.728179 -6.186002 -37.772938 206 185 200 
8.633272 -6.186002 -37.772938 206 185 200 
8.538364 -6.186002 -37.772938 205 184 199 
8.443458 -6.186002 -37.772938 205 184 199 
8.348550 -6.186002 -37.772938 204 183 198 
8.253642 -6.186002 -37.772938 204 183 198 
8.158735 -6.186002 -37.772938 204 183 198 
8.063828 -6.186002 -37.772938 204 183 198 
7.968920 -6.186002 -37.772938 204 183 198 
7.874013 -6.186002 -37.772938 203 182 197 
7.779106 -6.186002 -37.772938 203 182 197 
7.684198 -6.186002 -37.772938 203 182 197 
7.589291 -6.186002 -37.772938 203 182 199 
7.494384 -6.186002 -37.772938 203 182 199 
7.399477 -6.186002 -37.772938 203 182 199 
7.304569 -6.186002 -37.772938 203 182 199 
7.209661 -6.186002 -37.772938 203 182 199 
7.114754 -6.186002 -37.772938 203 182 199 
7.019847 -6.186002 -37.772938 203 182 199 
6.924940 -6.186002 -37.772938 203 182 199 
6.830032 -6.186002 -37.772938 203 182 199 
6.735125 -6.186002 -37.772938 202 181 198 
6.640217 -6.186002 -37.772938 201 180 197 
6.545310 -6.186002 -37.772938 200 179 196 
6.450403 -6.186002 -37.772938 200 179 196 
6.355495 -6.186002 -37.772938 200 179 196 
6.260588 -6.186002 -37.772938 200 179 196 
6.165681 -6.186002 -37.772938 200 179 196 
6.070774 -6.186002 -37.772938 196 178 194 
9.998741 -24.168564 -147.577988 46 44 55 
2.726683 -6.844665 -41.794865 44 42 53 
2.618796 -6.837160 -41.749039 40 38 49 
2.511145 -6.829671 -41.703312 44 42 53 
2.406362 -6.829671 -41.703312 46 44 55 
2.304103 -6.837160 -41.749039 49 47 60 
2.199206 -6.837160 -41.749039 55 53 66 
2.101220 -6.859725 -41.886822 64 62 76 
2.002585 -6.882439 -42.025520 71 69 83 
6.820141 -24.744007 -151.091751 70 68 82 
6.466171 -24.842588 -151.693710 66 64 78 
6.085030 -24.842588 -151.693710 49 46 55 
5.636519 -24.549171 -149.902054 39 36 45 
-7.344241 -22.757261 -138.960297 94 74 75 
-7.344908 -21.726444 -132.665939 94 74 75 
-7.598812 -21.501688 -131.293533 94 74 75 
-7.820823 -21.209148 -129.507217 93 73 74 
-8.036874 -20.924461 -127.768867 94 74 75 
-8.357903 -20.924461 -127.768867 94 74 75 
-8.649905 -20.854481 -127.341545 93 73 74 
-8.969861 -20.854481 -127.341545 93 73 72 
-9.289816 -20.854481 -127.341545 92 72 71 
-9.873958 -21.427799 -130.842346 91 71 70 
-8.344200 -13.584945 -82.952339 79 61 59 
-8.515519 -13.526008 -82.592461 79 61 59 
-8.537836 -13.238832 -80.838905 78 60 58 
-8.506172 -12.883244 -78.667610 78 60 58 
-8.579743 -12.699572 -77.546074 78 60 60 
-8.738987 -12.648052 -77.231483 77 59 59 
-8.861141 -12.546257 -76.609901 75 56 58 
-9.017343 -12.495972 -76.302849 73 54 56 
-9.117700 -12.372004 -75.545876 65 57 55 
-8.834250 -11.742918 -71.704559 61 53 51 
-8.831465 -11.504594 -70.249306 53 45 43 
-8.974854 -11.462297 -69.991035 45 37 35 
-9.613274 -9.076405 -55.422302 33 37 38 
-9.668089 -8.997821 -54.942455 42 47 50 
-9.680417 -8.882464 -54.238068 50 55 58 
-9.747269 -8.819646 -53.854488 52 57 61 
-9.826984 -8.770028 -53.551510 51 56 60 
-9.891973 -8.708784 -53.177547 47 52 56 
-9.997659 -8.684526 -53.029419 40 45 49 
-10.088745 -8.648391 -52.808769 33 36 41 
-10.151036 -8.588829 -52.445072 29 32 37 
-10.170734 -8.495217 -51.873463 31 32 37 
-10.245237 -8.449173 -51.592308 31 32 37 
-10.346827 -8.426337 -51.452869 35 34 39 
-10.176353 -7.893025 -48.196358 34 33 38 
-10.181458 -7.804117 -47.653469 35 34 39 
-10.262658 -7.774925 -47.475216 35 34 39 
-10.356117 -7.755584 -47.357117 35 34 39 
-10.462093 -7.745950 -47.298290 46 45 51 
-10.580934 -7.745950 -47.298290 56 55 61 
-16.790094 -12.154951 -74.220512 61 62 67 
-17.076441 -12.226450 -74.657104 64 65 70 
-17.196585 -12.178691 -74.365471 65 68 75 
-17.383434 -12.178691 -74.365471 64 67 74 
-17.570282 -12.178691 -74.365471 64 69 75 
-17.757132 -12.178691 -74.365471 69 74 80 
-17.943979 -12.178691 -74.365471 63 66 75 
-18.166309 -12.202524 -74.511002 60 63 72 
-18.353525 -12.202524 -74.511002 63 66 75 
-18.540739 -12.202524 -74.511002 64 67 76 
-18.654940 -12.154951 -74.220512 59 62 71 
-18.804768 -12.131303 -74.076111 58 61 70 
-18.954014 -12.107747 -73.932274 59 62 71 
-19.251923 -12.178691 -74.365471 56 59 68 
-20.394775 -12.777643 -78.022789 56 60 69 
-20.534380 -12.622449 -77.075150 59 64 70 
-20.686163 -12.596949 -76.919441 61 66 72 
-10.763446 -6.375756 -38.931618 53 60 66 
-10.718786 -6.292119 -38.420910 47 54 60 
-10.959084 -6.375756 -38.931618 51 49 63 
-11.113721 -6.408520 -39.131680 49 47 61 
-11.352046 -6.488543 -39.620316 50 48 61 
-16.859955 -7.275950 -44.428383 38 43 49 
-16.641474 -7.134428 -43.564213 37 44 50 
-16.655647 -7.093845 -43.316406 47 54 60 
-16.745434 -7.085784 -43.267185 57 66 71 
-16.854145 -7.085784 -43.267185 61 70 75 
-16.962856 -7.085784 -43.267185 58 67 76 
-16.766720 -6.959252 -42.494556 55 64 73 
-15.490417 -6.388822 -39.011395 57 67 76 
-15.367994 -6.298474 -38.459721 62 72 81 
15.429699 -10.640599 -63.991802 205 184 199 
9.012901 -6.280909 -37.772938 205 184 199 
8.917994 -6.280909 -37.772938 206 185 200 
8.823087 -6.280909 -37.772938 206 185 200 
8.728179 -6.280909 -37.772938 206 185 200 
8.633272 -6.280909 -37.772938 205 184 199 
8.538364 -6.280909 -37.772938 205 184 199 
8.443458 -6.280909 -37.772938 204 183 198 
8.348550 -6.280909 -37.772938 205 184 199 
8.253642 -6.280909 -37.772938 205 184 199 
8.158735 -6.280909 -37.772938 205 184 199 
8.063828 -6.280909 -37.772938 204 183 198 
7.968920 -6.280909 -37.772938 204 183 198 
7.874013 -6.280909 -37.772938 204 183 198 
7.779106 -6.280909 -37.772938 204 183 198 
7.684198 -6.280909 -37.772938 204 183 198 
7.589291 -6.280909 -37.772938 203 182 199 
7.494384 -6.280909 -37.772938 203 182 199 
7.399477 -6.280909 -37.772938 203 182 199 
7.304569 -6.280909 -37.772938 203 182 199 
7.209661 -6.280909 -37.772938 203 182 199 
7.114754 -6.280909 -37.772938 203 182 199 
7.019847 -6.280909 -37.772938 203 182 199 
6.924940 -6.280909 -37.772938 203 182 199 
6.830032 -6.280909 -37.772938 202 181 198 
6.735125 -6.280909 -37.772938 202 181 198 
6.640217 -6.280909 -37.772938 201 180 197 
6.545310 -6.280909 -37.772938 200 179 196 
6.450403 -6.280909 -37.772938 199 178 195 
6.355495 -6.280909 -37.772938 199 178 195 
6.260588 -6.280909 -37.772938 200 179 196 
9.998741 -24.539366 -147.577988 45 43 56 
2.723694 -6.942057 -41.749039 45 43 54 
2.615928 -6.934454 -41.703312 43 41 52 
2.502921 -6.911743 -41.566727 44 42 53 
2.393256 -6.896685 -41.476170 45 43 54 
2.286553 -6.889180 -41.431038 47 45 56 
2.182454 -6.889180 -41.431038 51 49 60 
2.094308 -6.942057 -41.749039 57 55 68 
1.995976 -6.964968 -41.886822 65 63 76 
1.896993 -6.988031 -42.025520 70 68 82 
-7.371143 -23.191050 -139.469315 93 73 74 
-7.370590 -22.136909 -133.129807 93 73 75 
-7.651581 -21.983181 -132.205292 93 73 75 
-7.847515 -21.608042 -129.949219 92 72 74 
-8.118606 -21.461546 -129.068207 92 72 74 
-8.357903 -21.245491 -127.768867 92 72 73 
-8.827037 -21.608042 -129.949219 92 72 73 
-9.216455 -21.756552 -130.842346 91 71 70 
-9.545206 -21.756552 -130.842346 90 70 69 
-9.873958 -21.756552 -130.842346 89 69 68 
-8.344200 -13.793369 -82.952339 77 62 59 
-8.515519 -13.733528 -82.592461 77 62 59 
-8.574244 -13.499268 -81.183632 77 61 61 
-8.594963 -13.217445 -79.488777 77 61 61 
-8.650213 -13.000321 -78.183006 76 60 61 
-8.756749 -12.868204 -77.388458 73 57 58 
-8.861141 -12.738745 -76.609901 69 55 55 
-8.927885 -12.561818 -75.545876 66 52 52 
-9.028134 -12.438421 -74.803780 49 45 44 
-9.021129 -12.175301 -73.221390 44 40 39 
-9.014414 -11.923081 -71.704559 37 33 32 
-9.613274 -9.215657 -55.422302 41 45 48 
-9.640267 -9.109577 -54.784348 44 49 53 
-9.652916 -8.993120 -54.083981 43 48 52 
-9.733501 -8.942311 -53.778423 50 55 59 
-9.813182 -8.892074 -53.476295 45 50 54 
-9.878176 -8.830065 -53.103378 39 42 47 
-9.969888 -8.793273 -52.882114 34 37 42 
-10.060838 -8.756786 -52.662685 32 33 37 
-10.123149 -8.696643 -52.300991 31 32 36 
-10.170734 -8.625553 -51.873463 31 32 36 
-10.245237 -8.578803 -51.592308 32 33 37 
-10.176353 -8.014122 -48.196358 31 30 36 
-10.143373 -7.894210 -47.475216 33 32 38 
-10.237129 -7.874573 -47.357117 37 36 42 
-10.330420 -7.855032 -47.239605 41 40 46 
-10.384691 -7.806604 -46.948364 56 55 63 
-10.463945 -7.777833 -46.775333 62 61 69 
-10.646871 -7.825904 -47.064430 61 61 69 
-17.009735 -12.365540 -74.365471 61 61 69 
-17.196585 -12.365540 -74.365471 61 64 71 
-17.383434 -12.365540 -74.365471 61 64 71 
-17.570282 -12.365540 -74.365471 60 65 71 
-17.757132 -12.365540 -74.365471 65 70 76 
-17.979095 -12.389738 -74.511002 64 67 76 
-18.345819 -12.512167 -75.247276 63 66 75 
-18.534883 -12.512167 -75.247276 66 69 78 
-18.613590 -12.438421 -74.803780 66 69 78 
-18.727953 -12.389738 -74.511002 59 63 72 
-18.878223 -12.365540 -74.365471 58 62 71 
-18.954014 -12.293508 -73.932274 59 64 70 
-19.713968 -12.662313 -76.150246 55 60 66 
-20.691582 -13.162487 -79.158257 55 60 66 
-20.786852 -12.973680 -78.022789 58 63 69 
-20.728037 -12.816106 -77.075150 60 65 71 
-10.718786 -6.388654 -38.420910 47 52 58 
-17.620708 -7.720922 -46.433075 39 44 50 
-17.051170 -7.422223 -44.636719 45 52 60 
-17.003849 -7.353260 -44.221977 55 62 70 
-17.114960 -7.353260 -44.221977 65 72 80 
-15.392399 -6.486840 -39.011395 59 68 77 
-15.302275 -6.408053 -38.537575 62 70 81 
-15.337010 -6.382214 -38.382179 67 75 86 
15.429699 -10.801383 -63.991802 204 183 198 
9.012901 -6.375816 -37.772938 205 184 199 
8.917994 -6.375816 -37.772938 205 184 199 
8.823087 -6.375816 -37.772938 205 184 199 
8.728179 -6.375816 -37.772938 205 184 199 
8.633272 -6.375816 -37.772938 205 184 199 
8.538364 -6.375816 -37.772938 204 183 198 
8.443458 -6.375816 -37.772938 204 183 198 
8.348550 -6.375816 -37.772938 205 184 199 
8.253642 -6.375816 -37.772938 205 184 199 
8.158735 -6.375816 -37.772938 205 184 199 
8.063828 -6.375816 -37.772938 205 184 199 
7.968920 -6.375816 -37.772938 204 183 198 
7.874013 -6.375816 -37.772938 204 183 198 
7.779106 -6.375816 -37.772938 204 183 198 
7.684198 -6.375816 -37.772938 204 183 198 
7.589291 -6.375816 -37.772938 202 181 198 
7.494384 -6.375816 -37.772938 202 181 198 
7.399477 -6.375816 -37.772938 202 181 198 
7.304569 -6.375816 -37.772938 202 181 198 
7.209661 -6.375816 -37.772938 202 181 198 
7.114754 -6.375816 -37.772938 202 181 198 
7.019847 -6.375816 -37.772938 201 180 197 
6.924940 -6.375816 -37.772938 201 180 197 
6.830032 -6.375816 -37.772938 201 180 197 
6.735125 -6.375816 -37.772938 201 180 197 
6.640217 -6.375816 -37.772938 200 179 196 
2.723694 -7.046955 -41.749039 42 40 51 
2.610210 -7.023850 -41.612156 42 40 51 
2.497468 -7.000896 -41.476170 43 42 50 
2.385460 -6.978092 -41.341068 44 43 51 
2.276644 -6.962972 -41.251488 45 43 54 
2.177715 -6.978092 -41.341068 47 45 56 
2.078356 -6.993279 -41.431038 51 49 62 
1.989410 -7.046955 -41.749039 58 56 69 
1.892815 -7.077999 -41.932953 65 63 76 
-6.995093 -23.455559 -138.960297 91 71 73 
-7.036091 -22.471409 -133.129807 92 72 74 
-7.319405 -22.315357 -132.205292 92 71 76 
-7.598812 -22.161459 -131.293533 92 71 76 
-7.847515 -21.934549 -129.949219 90 69 74 
-8.146219 -21.859941 -129.507217 90 69 74 
-8.500529 -21.934549 -129.949219 90 70 72 
-8.949210 -22.238142 -131.747833 90 70 72 
-9.280236 -22.238142 -131.747833 89 69 70 
-9.545206 -22.085302 -130.842346 88 68 69 
-9.609771 -21.494390 -127.341545 87 67 68 
-9.798641 -21.210636 -125.660469 86 66 67 
-8.723039 -13.941048 -82.592461 71 59 59 
-8.778225 -13.703247 -81.183632 68 56 56 
-8.794685 -13.417167 -79.488777 62 52 53 
-8.846654 -13.196762 -78.183006 57 47 48 
-8.969424 -13.089252 -77.546074 51 42 43 
-9.053630 -12.931233 -76.609901 47 38 39 
-9.081661 -12.701231 -75.247276 34 32 33 
-9.021129 -12.359275 -73.221390 32 30 31 
-12.276525 -12.879405 -76.302849 25 27 26 
-12.369091 -12.776984 -75.696068 29 31 30 
-12.460196 -12.676179 -75.098862 28 32 33 
-12.549875 -12.576953 -74.511002 29 33 34 
-12.712213 -12.552388 -74.365471 37 41 44 
-9.585369 -9.327755 -55.261425 46 50 53 
-9.598834 -9.207482 -54.548885 46 51 57 
-9.652916 -9.129010 -54.083981 41 46 52 
-9.719773 -9.064631 -53.702572 45 48 55 
-9.799419 -9.013777 -53.401295 38 41 48 
-9.864418 -8.951007 -53.029419 32 35 40 
-9.956059 -8.913763 -52.808769 29 32 37 
-10.019264 -8.852373 -52.445072 32 31 36 
-10.123149 -8.828053 -52.300991 33 32 37 
-10.212475 -8.791823 -52.086349 33 33 35 
-10.143373 -8.013494 -47.475216 34 33 39 
-10.211726 -7.973726 -47.239605 42 41 49 
-10.254086 -7.914806 -46.890545 49 48 56 
-10.333724 -7.885672 -46.717941 58 58 68 
-10.425522 -7.866368 -46.603577 61 61 71 
-10.555537 -7.876009 -46.660690 57 60 69 
-17.043022 -12.576953 -74.511002 56 59 68 
-17.751312 -12.957304 -76.764359 58 62 71 
-17.485889 -12.626371 -74.803780 56 60 69 
-17.673840 -12.626371 -74.803780 52 59 65 
-17.932251 -12.676179 -75.098862 54 61 67 
-19.100452 -13.361379 -79.158257 62 65 72 
-19.140173 -13.251182 -78.505409 62 65 72 
-19.023632 -13.036152 -77.231483 64 69 75 
-19.101446 -12.957304 -76.764359 61 66 72 
-19.139969 -12.853646 -76.150246 54 59 65 
-19.331301 -12.853646 -76.150246 54 59 65 
-19.522635 -12.853646 -76.150246 53 60 66 
-19.993883 -13.036152 -77.231483 50 57 63 
-17.623793 -7.944157 -47.064430 39 42 49 
-17.676497 -7.914806 -46.890545 44 49 55 
-17.620708 -7.837589 -46.433075 50 55 61 
-17.377117 -7.678402 -45.489990 59 63 72 
-17.305336 -7.596717 -45.006054 61 65 74 
-17.418417 -7.596717 -45.006054 62 69 79 
-17.593887 -7.623752 -45.166218 64 71 81 
-17.602964 -7.578801 -44.899910 66 72 84 
-15.392399 -6.584859 -39.011395 65 71 83 
-15.302275 -6.504881 -38.537575 64 70 82 
-15.337010 -6.478652 -38.382179 63 69 81 
15.429699 -10.962168 -63.991802 204 183 198 
9.012901 -6.470724 -37.772938 204 183 198 
8.917994 -6.470724 -37.772938 205 184 199 
8.823087 -6.470724 -37.772938 205 184 199 
8.728179 -6.470724 -37.772938 205 184 199 
8.633272 -6.470724 -37.772938 204 183 198 
8.538364 -6.470724 -37.772938 204 183 198 
8.443458 -6.470724 -37.772938 203 182 197 
8.348550 -6.470724 -37.772938 204 183 198 
8.253642 -6.470724 -37.772938 204 183 198 
8.158735 -6.470724 -37.772938 204 183 198 
8.063828 -6.470724 -37.772938 203 182 197 
7.968920 -6.470724 -37.772938 203 182 197 
7.874013 -6.470724 -37.772938 203 182 197 
7.779106 -6.470724 -37.772938 203 182 197 
7.684198 -6.470724 -37.772938 203 182 197 
7.589291 -6.470724 -37.772938 202 181 198 
7.494384 -6.470724 -37.772938 202 181 198 
7.399477 -6.470724 -37.772938 202 181 198 
7.304569 -6.470724 -37.772938 201 180 197 
7.209661 -6.470724 -37.772938 201 180 197 
7.114754 -6.470724 -37.772938 200 179 196 
7.019847 -6.470724 -37.772938 200 179 196 
6.924940 -6.470724 -37.772938 200 179 196 
6.830032 -6.470724 -37.772938 200 179 196 
2.729680 -7.167571 -41.840794 39 38 46 
2.615928 -7.144019 -41.703312 40 39 47 
2.497468 -7.105108 -41.476170 40 39 45 
2.380291 -7.066619 -41.251488 41 40 46 
2.274180 -7.058971 -41.206844 42 41 49 
2.170645 -7.058971 -41.206844 44 43 51 
2.073842 -7.081965 -41.341068 47 45 56 
1.985057 -7.136203 -41.657684 53 51 62 
1.886581 -7.159703 -41.794865 59 57 70 
-6.597786 -23.632208 -137.953339 87 68 70 
-6.678242 -22.726444 -132.665939 88 69 73 
-6.891514 -22.337294 -130.394257 88 69 73 
-7.219140 -22.337294 -130.394257 89 70 76 
-7.521008 -22.261057 -129.949219 88 69 75 
-7.794312 -22.110134 -129.068207 87 68 74 
-8.174023 -22.261057 -129.949219 87 68 74 
-8.618184 -22.569168 -131.747833 87 68 72 
-8.980284 -22.647533 -132.205292 86 67 71 
-9.312460 -22.647533 -132.205292 86 67 69 
-9.611263 -22.569168 -131.747833 85 66 68 
-9.482909 -21.526367 -125.660469 84 65 67 
-9.546586 -20.972635 -122.428047 83 64 66 
-9.791229 -20.838625 -121.645760 83 63 72 
-9.906963 -20.446676 -119.357750 82 62 71 
-10.111764 -20.256178 -118.245720 80 61 67 
-9.071883 -13.150181 -76.764359 29 27 30 
-8.888434 -12.616034 -73.646271 26 28 27 
-4.653757 -6.470724 -37.772938 26 28 27 
-4.748664 -6.470724 -37.772938 26 28 27 
-12.207125 -13.203420 -77.075150 26 27 29 
-12.178899 -12.967176 -75.696068 24 26 25 
-12.247348 -12.839546 -74.951027 27 29 28 
-12.362660 -12.764168 -74.511002 29 33 34 
-12.525363 -12.739238 -74.365471 35 39 40 
-12.638161 -12.665029 -73.932274 41 44 49 
-9.599301 -9.480363 -55.341747 45 48 53 
-9.710124 -9.452884 -55.181335 47 50 57 
-9.735892 -9.344541 -54.548885 46 49 56 
-9.719773 -9.199562 -53.702572 38 41 48 
-9.799419 -9.147952 -53.401295 33 36 43 
-9.864418 -9.084248 -53.029419 31 32 37 
-9.956059 -9.046449 -52.808769 31 32 37 
-10.033084 -8.996537 -52.517410 32 32 34 
-10.151036 -8.984145 -52.445072 32 32 34 
-10.118140 -8.112549 -47.357117 40 40 48 
-10.136271 -8.032622 -46.890545 49 49 59 
-10.216341 -8.003055 -46.717941 56 56 66 
-10.308427 -7.983463 -46.603577 54 56 68 
-10.400063 -7.963968 -46.489773 57 59 71 
-10.529729 -7.973703 -46.546604 53 57 66 
-17.558437 -13.150181 -76.764359 53 57 66 
-17.944189 -13.150181 -76.764359 54 61 69 
-18.137066 -13.150181 -76.764359 50 59 64 
-18.940939 -13.588520 -79.323174 52 61 66 
-19.543125 -13.731557 -80.158150 58 63 69 
-19.498236 -13.560269 -79.158257 60 65 71 
-19.335342 -13.311203 -77.704330 55 60 66 
-19.490803 -13.284093 -77.546074 45 52 58 
-19.605782 -13.230202 -77.231483 46 53 59 
-19.799833 -13.230202 -77.231483 48 56 59 
-17.777617 -8.132780 -47.475216 45 50 54 
-17.742044 -8.062409 -47.064430 53 58 64 
-17.838249 -8.052456 -47.006325 60 65 71 
-17.846193 -8.003055 -46.717941 64 68 77 
-17.533310 -7.811365 -45.598949 62 66 75 
-17.480404 -7.737236 -45.166218 62 66 77 
-17.593887 -7.737236 -45.166218 64 68 79 
-17.602964 -7.691615 -44.899910 66 70 81 
-15.345231 -6.662400 -38.891853 66 70 81 
-15.302275 -6.601710 -38.537575 63 67 79 
-15.383533 -6.595035 -38.498608 60 64 76 
15.429699 -11.122952 -63.991802 204 183 198 
9.012901 -6.565631 -37.772938 204 183 198 
8.917994 -6.565631 -37.772938 204 183 198 
8.823087 -6.565631 -37.772938 205 184 199 
8.728179 -6.565631 -37.772938 205 184 199 
8.633272 -6.565631 -37.772938 204 183 198 
8.538364 -6.565631 -37.772938 203 182 197 
8.443458 -6.565631 -37.772938 203 182 197 
8.348550 -6.565631 -37.772938 202 181 196 
8.253642 -6.565631 -37.772938 202 181 196 
8.158735 -6.565631 -37.772938 202 181 196 
8.063828 -6.565631 -37.772938 202 181 196 
7.968920 -6.565631 -37.772938 202 181 196 
7.874013 -6.565631 -37.772938 202 181 196 
7.779106 -6.565631 -37.772938 202 181 196 
7.684198 -6.565631 -37.772938 202 181 196 
7.589291 -6.565631 -37.772938 202 181 198 
7.494384 -6.565631 -37.772938 202 181 198 
7.399477 -6.565631 -37.772938 201 180 197 
7.304569 -6.565631 -37.772938 201 180 197 
7.209661 -6.565631 -37.772938 200 179 196 
7.114754 -6.565631 -37.772938 200 179 196 
7.019847 -6.565631 -37.772938 199 178 195 
6.924940 -6.565631 -37.772938 199 178 195 
6.830032 -6.565631 -37.772938 198 177 194 
2.735692 -7.288718 -41.932953 41 40 48 
2.618796 -7.256750 -41.749039 42 41 49 
2.502921 -7.225061 -41.566727 39 38 44 
2.390651 -7.201476 -41.431038 39 38 44 
2.276644 -7.170267 -41.251488 41 40 48 
2.175353 -7.178043 -41.296230 44 43 51 
2.073842 -7.185837 -41.341068 48 46 57 
1.982888 -7.232957 -41.612156 53 51 62 
1.884513 -7.256750 -41.749039 58 56 69 
3.497864 -14.263268 -82.058456 61 59 72 
2.873138 -14.232594 -81.881981 35 33 44 
-6.118164 -23.468639 -135.018158 84 65 69 
-6.279272 -22.821228 -131.293533 85 66 70 
-6.519237 -22.510735 -129.507217 86 67 73 
-6.821431 -22.434427 -129.068207 86 67 73 
-7.145724 -22.434427 -129.068207 86 67 73 
-7.394816 -22.208578 -127.768867 86 67 73 
-7.715846 -22.208578 -127.768867 85 66 72 
-8.287157 -22.900194 -131.747833 85 66 72 
-8.800901 -23.385712 -134.541077 85 66 72 
-9.336902 -23.892260 -137.455322 85 66 72 
-9.682268 -23.892260 -137.455322 84 65 69 
-10.249649 -24.421240 -140.498611 83 64 68 
-9.609771 -22.134302 -127.341545 82 63 65 
-9.608376 -21.417980 -123.220459 82 63 65 
-9.607068 -20.746571 -119.357750 81 61 70 
-9.754078 -20.426409 -117.515808 80 60 69 
-9.926793 -20.177305 -116.082687 78 58 67 
-10.065029 -19.874342 -114.339706 77 57 66 
-4.604529 -6.631419 -38.151424 26 27 29 
-4.653757 -6.565631 -37.772938 27 28 30 
-4.748664 -6.565631 -37.772938 27 28 30 
-4.843572 -6.565631 -37.772938 26 27 29 
-4.938479 -6.565631 -37.772938 24 25 27 
-12.084809 -13.262838 -76.302849 26 27 29 
-12.059028 -13.027866 -74.951027 29 31 30 
-12.175446 -12.951382 -74.511002 29 31 30 
-12.362660 -12.951382 -74.511002 33 37 38 
-12.525363 -12.926086 -74.365471 40 44 45 
-12.687432 -12.900889 -74.220512 41 44 49 
-12.823921 -12.850789 -73.932274 39 42 47 
-9.738352 -9.619413 -55.341747 41 44 51 
-9.792006 -9.536248 -54.863289 47 50 57 
-9.719773 -9.334494 -53.702572 34 37 44 
-9.785694 -9.269126 -53.326504 31 34 41 
-9.864418 -9.217487 -53.029419 31 32 37 
-9.969888 -9.191883 -52.882114 32 33 38 
-10.068050 -8.190787 -47.122677 45 48 55 
-10.111365 -8.130413 -46.775333 54 57 66 
-10.203821 -8.110485 -46.660690 59 62 71 
-10.295825 -8.090655 -46.546604 52 54 66 
-10.400063 -8.080777 -46.489773 54 56 68 
-10.516871 -8.080777 -46.489773 51 55 66 
-17.348576 -13.183578 -75.846855 50 54 65 
-17.751312 -13.343057 -76.764359 54 61 69 
-17.944189 -13.343057 -76.764359 55 62 70 
-18.137066 -13.343057 -76.764359 55 64 69 
-19.140318 -13.932961 -80.158150 59 68 73 
-18.017788 -8.420046 -48.441631 39 44 47 
-17.844366 -8.283049 -47.653469 47 52 55 
-17.874613 -8.241789 -47.416092 56 61 65 
-17.860298 -8.180663 -47.064430 61 66 70 
-17.846193 -8.120437 -46.717941 60 64 73 
-17.702919 -8.002607 -46.040051 63 67 76 
-17.605713 -7.906997 -45.489990 66 68 80 
-17.677769 -7.888148 -45.381554 67 69 81 
-17.602964 -7.804430 -44.899910 66 68 80 
-15.345231 -6.760118 -38.891853 66 68 80 
-15.395771 -6.739467 -38.773037 67 69 81 
-15.399103 -6.698539 -38.537575 68 70 82 
15.429699 -11.283735 -63.991802 201 183 197 
9.012901 -6.660538 -37.772938 202 184 198 
8.917994 -6.660538 -37.772938 202 184 198 
8.823087 -6.660538 -37.772938 202 184 198 
8.728179 -6.660538 -37.772938 202 184 198 
8.633272 -6.660538 -37.772938 201 183 197 
8.538364 -6.660538 -37.772938 200 182 196 
8.443458 -6.660538 -37.772938 199 181 195 
8.348550 -6.660538 -37.772938 199 181 195 
8.253642 -6.660538 -37.772938 199 181 195 
8.158735 -6.660538 -37.772938 200 182 196 
8.063828 -6.660538 -37.772938 200 182 196 
7.968920 -6.660538 -37.772938 200 182 196 
7.874013 -6.660538 -37.772938 200 182 196 
7.779106 -6.660538 -37.772938 200 182 196 
7.684198 -6.660538 -37.772938 200 182 196 
7.589291 -6.660538 -37.772938 204 184 196 
7.494384 -6.660538 -37.772938 203 183 195 
7.399477 -6.660538 -37.772938 203 183 195 
7.304569 -6.660538 -37.772938 202 182 194 
7.209661 -6.660538 -37.772938 201 180 195 
7.114754 -6.660538 -37.772938 200 179 194 
7.019847 -6.660538 -37.772938 198 180 194 
2.741731 -7.410400 -42.025520 44 42 53 
2.618796 -7.361648 -41.749039 37 35 46 
2.513898 -7.361648 -41.749039 40 39 47 
2.398481 -7.329501 -41.566727 40 39 47 
2.286553 -7.305574 -41.431038 41 40 46 
2.177715 -7.289710 -41.341068 42 41 47 
2.078356 -7.305574 -41.431038 43 42 48 
1.982888 -7.337511 -41.612156 45 44 50 
1.880389 -7.345539 -41.657684 51 50 55 
1.779615 -7.361648 -41.749039 57 56 61 
3.284607 -14.438329 -81.881981 61 60 66 
3.078873 -14.438329 -81.881981 53 52 58 
2.860833 -14.376494 -81.531311 40 39 45 
-5.738224 -23.640221 -134.067337 80 62 60 
-5.949387 -23.151114 -131.293533 81 63 61 
-6.172843 -22.758720 -129.068207 82 64 62 
-6.367626 -22.305059 -126.495422 83 65 65 
-6.663318 -22.231201 -126.076569 83 65 65 
-7.003285 -22.305059 -126.495422 83 65 65 
-7.370085 -22.454256 -127.341545 83 65 65 
-7.794312 -22.758720 -129.068207 83 64 66 
-8.403468 -23.557272 -133.596924 83 64 66 
-9.224648 -24.866011 -141.018967 83 64 68 
-9.833923 -25.527843 -144.772324 82 63 67 
-10.044900 -25.145403 -142.603455 81 62 66 
-10.724537 -25.922096 -147.008194 80 61 65 
-9.607068 -21.046467 -119.357750 69 56 63 
-9.754078 -20.721676 -117.515808 68 55 62 
-9.777741 -20.161631 -114.339706 65 53 57 
-10.034894 -20.101265 -113.997375 61 49 53 
-8.998363 -16.177887 -91.747284 40 32 30 
-4.227359 -7.410400 -42.025520 31 27 24 
-4.313906 -7.377827 -41.840794 31 27 24 
-4.540519 -6.774796 -38.420910 27 27 29 
-4.604529 -6.727277 -38.151424 28 28 26 
-4.653757 -6.660538 -37.772938 26 26 24 
-4.748664 -6.660538 -37.772938 24 24 22 
-4.843572 -6.660538 -37.772938 24 24 22 
-4.938479 -6.660538 -37.772938 26 26 24 
-11.769098 -13.757833 -78.022789 27 27 27 
-11.965137 -13.757833 -78.022789 27 27 27 
-12.161174 -13.757833 -78.022789 28 28 28 
-12.012589 -13.374149 -75.846855 28 28 28 
-12.035336 -13.190222 -74.803780 28 27 33 
-12.199319 -13.164358 -74.657104 43 42 48 
-12.362660 -13.138597 -74.511002 49 48 54 
-12.599187 -13.190222 -74.803780 43 42 48 
-13.069584 -13.481572 -76.456070 44 43 51 
-13.315160 -13.535933 -76.764359 51 50 58 
-9.772008 -9.389962 -53.251919 32 31 39 
-9.850698 -9.337723 -52.955666 32 31 36 
-10.161299 -8.288670 -47.006325 56 56 64 
-10.216341 -8.237820 -46.717941 55 55 63 
-10.308427 -8.217653 -46.603577 52 55 64 
-10.412777 -8.207607 -46.546604 55 58 67 
-16.757427 -13.061912 -74.076111 57 60 69 
-17.076441 -13.164358 -74.657104 56 59 68 
-17.539146 -13.374149 -75.846855 53 57 66 
-17.836308 -13.454555 -76.302849 53 57 66 
-18.017788 -8.541759 -48.441631 49 53 52 
-17.934149 -8.445060 -47.893234 54 58 57 
-17.941643 -8.392279 -47.593903 59 64 67 
-17.993750 -8.360925 -47.416092 64 69 72 
-17.956356 -8.288670 -47.006325 68 75 81 
-17.832294 -8.177616 -46.376518 68 75 81 
-17.797079 -8.108481 -45.984447 67 74 82 
-17.805099 -8.059812 -45.708431 66 73 81 
-17.707371 -7.964202 -45.166218 68 72 81 
-15.392399 -6.878917 -39.011395 68 72 81 
-15.427191 -6.850840 -38.852165 70 73 80 
-15.493192 -6.836887 -38.773037 70 73 80 
15.429699 -11.444520 -63.991802 201 183 197 
9.012901 -6.755446 -37.772938 201 183 197 
8.917994 -6.755446 -37.772938 202 184 198 
8.823087 -6.755446 -37.772938 202 184 198 
8.728179 -6.755446 -37.772938 202 184 198 
8.633272 -6.755446 -37.772938 201 183 197 
8.538364 -6.755446 -37.772938 200 182 196 
8.443458 -6.755446 -37.772938 200 182 196 
8.348550 -6.755446 -37.772938 200 182 196 
8.253642 -6.755446 -37.772938 200 182 196 
8.158735 -6.755446 -37.772938 200 182 196 
8.063828 -6.755446 -37.772938 200 182 196 
7.968920 -6.755446 -37.772938 199 181 195 
7.874013 -6.755446 -37.772938 199 181 195 
7.779106 -6.755446 -37.772938 198 180 194 
7.684198 -6.755446 -37.772938 198 180 194 
7.589291 -6.755446 -37.772938 200 180 192 
7.209661 -6.755446 -37.772938 200 179 194 
7.114754 -6.755446 -37.772938 200 179 194 
6.619065 -14.739155 -82.413689 51 49 62 
3.295152 -7.574515 -42.352749 53 51 64 
5.400019 -14.803238 -82.772003 45 43 54 
2.618796 -7.466545 -41.749039 38 36 47 
2.511145 -7.458367 -41.703312 39 38 46 
2.403729 -7.450207 -41.657684 39 38 46 
2.294042 -7.433940 -41.566727 39 38 46 
2.189602 -7.433940 -41.566727 40 39 47 
2.085162 -7.433940 -41.566727 40 39 45 
1.982888 -7.442065 -41.612156 42 41 47 
1.878334 -7.442065 -41.612156 47 46 52 
1.777666 -7.458367 -41.703312 52 51 57 
2.732276 -12.181555 -68.112923 57 56 64 
-5.249352 -24.852150 -138.960297 60 49 47 
-5.382418 -23.892944 -133.596924 68 54 53 
-5.658526 -23.644060 -132.205292 69 55 54 
-5.868443 -23.161528 -129.507217 70 56 55 
-6.049797 -22.622889 -126.495422 72 58 57 
-6.346541 -22.547977 -126.076569 73 59 59 
-6.641327 -22.473562 -125.660469 73 59 59 
-7.003285 -22.622889 -126.495422 73 59 59 
-7.370085 -22.774212 -127.341545 73 59 59 
-8.124812 -24.061800 -134.541077 75 60 63 
-9.922929 -27.129440 -151.693710 73 58 63 
-10.063509 -26.496067 -148.152222 71 56 61 
-10.236597 -25.990417 -145.324890 69 54 59 
-10.724537 -26.291464 -147.008194 67 52 57 
-9.917976 -22.037182 -123.220459 48 39 44 
-9.694238 -20.888004 -116.794853 46 37 42 
-9.748467 -20.387693 -113.997375 43 34 37 
-10.004939 -20.326834 -113.657082 39 30 33 
-10.169089 -20.086988 -112.315994 34 28 30 
-9.869047 -18.967937 -106.058838 33 27 29 
-4.130141 -7.729273 -43.218075 32 26 26 
-4.144640 -7.557702 -42.258739 32 26 26 
-4.208777 -7.482955 -41.840794 30 26 25 
-4.304445 -7.466545 -41.749039 30 26 25 
-4.414183 -7.474741 -41.794865 28 26 27 
-4.540519 -6.871331 -38.420910 27 27 29 
-4.604529 -6.823136 -38.151424 27 27 25 
-4.653757 -6.755446 -37.772938 26 26 24 
-4.748664 -6.755446 -37.772938 25 25 25 
-4.843572 -6.755446 -37.772938 25 25 25 
-11.573060 -13.953872 -78.022789 26 26 26 
-11.745030 -13.925336 -77.863235 26 26 28 
-11.916299 -13.896917 -77.704330 27 27 29 
-11.965026 -13.728809 -76.764359 29 29 31 
-11.988707 -13.537752 -75.696068 31 31 33 
-12.035336 -13.378172 -74.803780 36 35 41 
-12.199319 -13.351940 -74.657104 43 42 48 
-12.386901 -13.351940 -74.657104 48 47 53 
-12.599187 -13.378172 -74.803780 48 47 53 
-12.965444 -13.564720 -75.846855 47 46 54 
-13.156014 -13.564720 -75.846855 46 45 53 
-13.453787 -13.673674 -76.456070 40 39 47 
-13.700912 -13.728809 -76.764359 32 31 39 
-9.854705 -9.604358 -53.702572 30 29 35 
-15.828176 -13.095172 -73.221390 53 56 63 
-16.105064 -13.171160 -73.646271 52 55 62 
-16.353369 -13.222309 -73.932274 51 54 63 
-16.571306 -13.248034 -74.076111 53 56 65 
-16.790094 -13.273858 -74.220512 53 57 66 
-17.009735 -13.299784 -74.365471 52 56 65 
-17.331991 -13.404507 -74.951027 52 57 63 
-17.589561 -13.457489 -75.247276 53 58 64 
-18.028025 -13.646272 -76.302849 56 61 67 
-18.017788 -8.663472 -48.441631 50 55 59 
-18.116453 -8.652464 -48.380081 56 61 65 
-18.168753 -8.619607 -48.196358 58 65 71 
-18.129211 -8.543901 -47.773052 60 67 73 
-18.112886 -8.480062 -47.416092 65 72 82 
-17.948820 -8.294141 -46.376518 63 70 80 
-17.805099 -8.174657 -45.708431 61 68 78 
-16.068153 -7.329913 -40.985062 60 64 75 
-15.616405 -7.078471 -39.579128 60 64 75 
-15.474563 -6.969795 -38.971466 62 64 76 
-15.524810 -6.948459 -38.852165 64 66 78 
15.429699 -11.605304 -63.991802 202 181 196 
9.012901 -6.850353 -37.772938 203 182 197 
8.917994 -6.850353 -37.772938 203 182 197 
8.823087 -6.850353 -37.772938 204 183 198 
8.728179 -6.850353 -37.772938 204 183 198 
8.633272 -6.850353 -37.772938 203 182 197 
8.538364 -6.850353 -37.772938 203 182 197 
8.443458 -6.850353 -37.772938 202 181 196 
8.348550 -6.850353 -37.772938 201 180 195 
8.253642 -6.850353 -37.772938 201 180 195 
8.158735 -6.850353 -37.772938 201 180 195 
8.063828 -6.850353 -37.772938 201 180 195 
7.968920 -6.850353 -37.772938 200 179 194 
7.874013 -6.850353 -37.772938 199 178 193 
8.927935 -8.482992 -46.775333 199 178 193 
8.810409 -8.482992 -46.775333 199 178 193 
6.185781 -7.837862 -43.218075 78 74 91 
6.077193 -7.837862 -43.218075 81 78 95 
5.975387 -7.846768 -43.267185 78 75 92 
3.255320 -7.588083 -41.840794 52 50 61 
3.136406 -7.554875 -41.657684 55 53 64 
2.618796 -7.571443 -41.749039 42 40 51 
2.508397 -7.554875 -41.657684 39 38 46 
2.401102 -7.546618 -41.612156 38 37 45 
2.294042 -7.538380 -41.566727 38 37 45 
2.189602 -7.538380 -41.566727 39 38 46 
2.085162 -7.538380 -41.566727 39 38 46 
1.980723 -7.538380 -41.566727 39 38 46 
1.876283 -7.538380 -41.566727 43 42 50 
1.773780 -7.546618 -41.612156 47 46 54 
2.722536 -12.308656 -67.870094 51 50 58 
-5.382418 -24.228617 -133.596924 48 40 38 
-5.678243 -24.059776 -132.665939 49 41 39 
-5.990702 -23.976236 -132.205292 51 42 43 
-6.172843 -23.407309 -129.068207 53 44 45 
-6.367626 -22.940718 -126.495422 54 45 46 
-10.222615 -27.293106 -150.494553 46 37 40 
-10.395304 -26.764170 -147.577988 43 34 39 
-10.766105 -26.764170 -147.577988 40 31 36 
-9.906963 -21.646257 -119.357750 31 26 32 
-9.957150 -21.116684 -116.437683 29 24 28 
-10.004939 -20.612406 -113.657082 28 23 27 
-4.046152 -8.104643 -44.689110 26 24 27 
-4.091210 -7.973621 -43.966656 26 24 27 
-4.065536 -7.715258 -42.542038 27 25 26 
-4.144640 -7.663880 -42.258739 27 25 26 
-4.218048 -7.604797 -41.932953 27 25 26 
-4.304445 -7.571443 -41.749039 27 25 26 
-4.409343 -7.571443 -41.749039 27 27 29 
-4.504363 -7.554875 -41.657684 27 27 29 
-4.604529 -6.918994 -38.151424 26 26 26 
-4.653757 -6.850353 -37.772938 26 26 26 
-4.748664 -6.850353 -37.772938 25 25 25 
-11.542592 -14.355834 -79.158257 26 26 28 
-11.573060 -14.149910 -78.022789 26 26 28 
-11.769098 -14.149910 -78.022789 26 25 30 
-11.916299 -14.092155 -77.704330 29 28 33 
-11.940951 -13.893674 -76.609901 32 31 36 
-11.941227 -13.673576 -75.396286 35 34 39 
-12.011738 -13.539521 -74.657104 41 40 46 
-12.199319 -13.539521 -74.657104 41 40 46 
-12.386901 -13.539521 -74.657104 44 43 49 
-12.599187 -13.566122 -74.803780 49 48 54 
-12.787137 -13.566122 -74.803780 48 47 53 
-13.077860 -13.673576 -75.396286 39 38 44 
-13.346585 -13.755291 -75.846855 31 30 36 
-13.564177 -13.782746 -75.998245 29 28 34 
-15.858674 -13.304732 -73.362473 49 54 60 
-16.105064 -13.356201 -73.646271 49 54 60 
-16.353369 -13.408070 -73.932274 49 53 62 
-16.539129 -13.408070 -73.932274 48 52 61 
-16.757427 -13.434155 -74.076111 46 53 61 
-17.009735 -13.486632 -74.365471 47 54 62 
-17.196585 -13.486632 -74.365471 49 56 62 
-17.554867 -13.619637 -75.098862 52 59 65 
-17.681540 -8.339561 -45.984447 61 68 78 
-17.797079 -8.339561 -45.984447 58 64 76 
-17.805099 -8.289503 -45.708431 55 61 73 
-17.013569 -7.820109 -43.120186 54 58 69 
-15.522225 -7.089482 -39.091503 58 60 72 
-15.572481 -7.067713 -38.971466 60 62 74 
15.429699 -11.766088 -63.991802 201 180 195 
9.012901 -6.945261 -37.772938 202 181 196 
8.917994 -6.945261 -37.772938 202 181 196 
8.823087 -6.945261 -37.772938 203 182 197 
8.728179 -6.945261 -37.772938 203 182 197 
8.633272 -6.945261 -37.772938 203 182 197 
8.538364 -6.945261 -37.772938 202 181 196 
8.443458 -6.945261 -37.772938 202 181 196 
8.348550 -6.945261 -37.772938 199 178 193 
8.253642 -6.945261 -37.772938 200 179 194 
8.158735 -6.945261 -37.772938 200 179 194 
8.063828 -6.945261 -37.772938 200 179 194 
8.401217 -9.764049 -53.103378 126 117 134 
8.054357 -9.511987 -51.732502 94 87 103 
7.839166 -9.409708 -51.176239 87 80 96 
6.157823 -7.910534 -43.022736 76 74 88 
6.049725 -7.910534 -43.022736 79 78 92 
5.968604 -7.946450 -43.218075 78 77 91 
3.237532 -7.651172 -41.612156 51 50 58 
3.122740 -7.626168 -41.476170 54 53 61 
3.011966 -7.609590 -41.386002 57 56 64 
5.815960 -15.219179 -82.772003 59 58 66 
2.717734 -7.659544 -41.657684 51 50 58 
2.610210 -7.651172 -41.612156 47 46 54 
2.505656 -7.651172 -41.612156 40 38 49 
2.401102 -7.651172 -41.612156 38 36 47 
2.294042 -7.642819 -41.566727 38 36 47 
2.187214 -7.634485 -41.521400 39 37 48 
2.082889 -7.634485 -41.521400 39 37 48 
1.978563 -7.634485 -41.521400 39 37 48 
1.874237 -7.634485 -41.521400 41 39 50 
1.769912 -7.634485 -41.521400 43 41 52 
2.018141 -10.575261 -57.515289 42 41 49 
1.859584 -10.495986 -57.084141 36 35 43 
1.726510 -10.559310 -57.428539 32 31 37 
-10.600744 -27.671236 -150.494553 29 27 30 
-4.046152 -8.216928 -44.689110 29 28 33 
-4.091210 -8.084091 -43.966656 28 27 32 
-4.065536 -7.822148 -42.542038 27 26 31 
-4.144640 -7.770058 -42.258739 26 25 30 
-4.218048 -7.710157 -41.932953 25 24 29 
-4.295026 -7.659544 -41.657684 26 25 30 
-4.356794 -7.584857 -41.251488 26 25 30 
-4.460442 -7.584857 -41.251488 26 25 30 
-4.627715 -7.050174 -38.343529 25 25 27 
-11.494796 -14.494456 -78.830482 28 27 32 
-11.596824 -14.375405 -78.183006 27 26 31 
-11.769098 -14.345948 -78.022789 28 27 32 
-11.892030 -14.258294 -77.546074 31 30 35 
-11.893092 -14.029704 -76.302849 34 33 39 
-11.917627 -13.835618 -75.247276 37 36 42 
-11.988232 -13.700240 -74.511002 39 38 44 
-12.175446 -13.700240 -74.511002 39 38 44 
-12.386901 -13.727103 -74.657104 42 41 47 
-12.574483 -13.727103 -74.657104 45 44 50 
-12.762064 -13.727103 -74.657104 41 40 46 
-12.949646 -13.727103 -74.657104 32 31 37 
-13.137227 -13.727103 -74.657104 27 26 32 
-13.537156 -13.945862 -75.846855 28 27 33 
-15.644202 -13.463120 -73.221390 48 53 57 
-15.828176 -13.463120 -73.221390 47 52 58 
-16.043003 -13.489060 -73.362473 47 52 58 
-16.290106 -13.541243 -73.646271 45 52 58 
-16.475147 -13.541243 -73.646271 43 50 56 
-16.724890 -13.593830 -73.932274 42 49 55 
-16.976578 -13.646828 -74.220512 44 51 57 
-17.196585 -13.673482 -74.365471 48 57 62 
-17.520311 -13.781147 -74.951027 52 61 66 
-16.795206 -8.084091 -43.966656 55 62 70 
-16.674618 -7.973602 -43.365742 52 59 67 
-16.783577 -7.973602 -43.365742 49 56 64 
-17.246101 -8.140491 -44.273399 48 55 63 
-17.357803 -8.037683 -43.714264 56 60 69 
-15.588436 -7.172974 -39.011395 57 61 70 
15.429699 -11.926872 -63.991802 201 180 195 
9.012901 -7.040168 -37.772938 201 180 195 
8.917994 -7.040168 -37.772938 202 181 196 
8.823087 -7.040168 -37.772938 202 181 196 
8.728179 -7.040168 -37.772938 202 181 196 
8.633272 -7.040168 -37.772938 202 181 196 
8.538364 -7.040168 -37.772938 202 181 196 
8.443458 -7.040168 -37.772938 201 180 195 
8.348550 -7.040168 -37.772938 199 178 193 
8.253642 -7.040168 -37.772938 200 179 194 
8.240318 -9.707919 -52.086349 94 90 105 
8.010819 -9.589850 -51.452869 87 83 98 
7.839166 -9.538292 -51.176239 68 64 79 
7.752261 -9.589850 -51.452869 53 51 65 
7.633297 -9.602827 -51.522495 60 58 72 
6.265921 -8.018632 -43.022736 69 67 81 
6.130116 -7.982553 -42.829159 66 64 78 
6.008986 -7.964634 -42.733021 75 73 87 
5.901616 -7.964634 -42.733021 75 73 87 
7.190353 -9.883690 -53.029419 75 73 87 
7.057113 -9.883690 -53.029419 73 71 85 
6.904639 -9.856235 -52.882114 71 69 83 
6.771769 -9.856235 -52.882114 69 67 81 
3.233997 -7.747259 -41.566727 52 51 59 
3.105823 -7.688504 -41.251488 54 53 61 
2.989222 -7.655328 -41.073486 57 56 64 
2.882911 -7.647079 -41.029228 59 58 66 
2.779822 -7.647079 -41.029228 57 56 64 
2.697078 -7.705200 -41.341068 53 52 60 
2.598849 -7.721969 -41.431038 50 49 57 
2.494750 -7.721969 -41.431038 41 39 50 
2.390651 -7.721969 -41.431038 38 36 47 
2.286553 -7.721969 -41.431038 37 35 46 
2.175353 -7.696843 -41.296230 38 36 47 
2.071593 -7.696843 -41.296230 39 37 48 
1.969970 -7.705200 -41.341068 38 36 47 
1.866097 -7.705200 -41.341068 39 37 48 
1.762225 -7.705200 -41.341068 41 39 50 
2.307164 -10.719772 -57.515289 41 40 48 
2.162652 -10.719772 -57.515289 42 41 49 
2.003012 -10.639414 -57.084141 41 40 48 
1.859584 -10.639414 -57.084141 37 36 44 
1.726510 -10.703604 -57.428539 33 32 38 
-4.153861 -7.893759 -42.352749 23 24 28 
-4.199548 -7.781238 -41.749039 24 23 28 
-4.253147 -7.688504 -41.251488 25 24 29 
-4.347374 -7.671880 -41.162296 26 25 30 
-4.379774 -7.549457 -40.505451 26 25 30 
-4.481547 -7.549457 -40.505451 25 24 29 
-11.837925 -15.131107 -81.183632 28 27 33 
-11.692863 -14.692524 -78.830482 29 28 34 
-11.793264 -14.571846 -78.183006 29 28 34 
-11.965137 -14.541986 -78.022789 31 30 36 
-11.965026 -14.307438 -76.764359 34 33 39 
-11.917627 -14.024682 -75.247276 36 35 41 
-11.988232 -13.887454 -74.511002 37 36 44 
-12.175446 -13.887454 -74.511002 41 40 48 
-12.386901 -13.914684 -74.657104 42 41 47 
-12.574483 -13.914684 -74.657104 39 38 44 
-12.762064 -13.914684 -74.657104 33 32 38 
-12.924304 -13.887454 -74.511002 28 27 33 
-13.137227 -13.914684 -74.657104 28 27 32 
-13.298733 -13.887454 -74.511002 29 28 33 
-15.407168 -13.440320 -72.111977 44 49 53 
-15.737384 -13.568813 -72.801384 44 49 53 
-15.920302 -13.568813 -72.801384 46 51 55 
-16.227331 -13.673389 -73.362473 44 52 55 
-16.411659 -13.673389 -73.362473 42 50 53 
-16.724890 -13.779591 -73.932274 41 48 54 
-17.009735 -13.860331 -74.365471 44 51 57 
-17.196585 -13.860331 -74.365471 49 58 63 
-16.781628 -8.242147 -44.221977 47 55 57 
-16.698792 -8.147519 -43.714264 44 52 54 
-16.674618 -8.082561 -43.365742 41 49 51 
-16.860390 -8.119553 -43.564213 41 46 49 
-17.246101 -8.251732 -44.273399 44 49 52 
-17.377548 -8.261338 -44.324940 51 56 59 
-17.488918 -8.261338 -44.324940 57 62 65 
-17.377756 -8.156884 -43.764507 58 63 66 
-17.230253 -8.036794 -43.120186 57 62 65 
15.429699 -12.087657 -63.991802 200 179 194 
9.012901 -7.135075 -37.772938 200 179 194 
8.917994 -7.135075 -37.772938 201 180 195 
8.823087 -7.135075 -37.772938 201 180 195 
8.728179 -7.135075 -37.772938 201 180 195 
8.633272 -7.135075 -37.772938 201 180 195 
8.538364 -7.135075 -37.772938 200 179 194 
8.443458 -7.135075 -37.772938 200 179 194 
8.348550 -7.135075 -37.772938 201 180 195 
8.240318 -9.838790 -52.086349 87 83 100 
8.032529 -9.745468 -51.592308 80 76 93 
7.892205 -9.732281 -51.522495 70 66 83 
7.783817 -9.758692 -51.662312 63 61 75 
7.664411 -9.771951 -51.732502 59 57 71 
6.237728 -8.090164 -42.829159 59 57 70 
6.116356 -8.072004 -42.733021 66 64 77 
5.995528 -8.053926 -42.637314 75 73 86 
5.888399 -8.053926 -42.637314 74 72 85 
7.190353 -10.016930 -53.029419 73 71 84 
7.057113 -10.016930 -53.029419 71 69 82 
6.904639 -9.989105 -52.882114 69 67 80 
6.743670 -9.947657 -52.662685 67 65 78 
6.602220 -9.933917 -52.589947 67 65 79 
6.479033 -9.947657 -52.662685 67 65 79 
6.355504 -9.961434 -52.735626 62 61 66 
5.841677 -9.989105 -52.882114 58 57 65 
3.092422 -7.758528 -41.073486 54 52 63 
2.982786 -7.741826 -40.985062 57 55 66 
2.876712 -7.733501 -40.940990 58 56 67 
2.770865 -7.725194 -40.897018 58 56 67 
2.670977 -7.733501 -40.940990 55 53 64 
2.576421 -7.758528 -41.073486 52 50 61 
2.475891 -7.766907 -41.117844 43 42 50 
2.372580 -7.766907 -41.117844 39 38 46 
2.269268 -7.766907 -41.117844 36 35 43 
2.163620 -7.758528 -41.073486 37 36 44 
2.067109 -7.783719 -41.206844 38 37 45 
1.963574 -7.783719 -41.206844 37 36 44 
1.860039 -7.783719 -41.206844 38 37 45 
1.756503 -7.783719 -41.206844 39 38 46 
1.647619 -7.758528 -41.073486 39 38 44 
1.982209 -10.670855 -56.491280 39 38 44 
1.840271 -10.670855 -56.491280 36 35 41 
1.698332 -10.670855 -56.491280 34 33 38 
-4.232030 -7.947134 -42.071960 23 22 28 
-4.243950 -7.775303 -41.162296 25 24 30 
-4.278001 -7.651229 -40.505451 26 25 30 
-4.342814 -7.586662 -40.163631 26 25 30 
